ply
format ascii 1.0
element vertex 1253
property float x
property float y
property float z
property uchar red
property uchar green
property uchar blue
end_header
46.3626 105.962 -59.9924  255 255 255
-7.81111 90.007 -34.5351  255 255 255
38.8957 103.715 -57.0092  255 255 255
42.659 105.164 -59.2545  255 255 255
25.25 99.4294 -51.0814  255 255 255
37.043 102.802 -57.7892  255 255 255
50.2546 106.291 -63.6354  255 255 255
50.091 106.1 -63.3148  255 255 255
30.1693 100.53 -54.6062  255 255 255
10.0721 94.2861 -44.7369  255 255 255
12.0435 95.0342 -45.9416  255 255 255
30.3562 100.105 -54.8068  255 255 255
11.9074 94.5164 -46.0132  255 255 255
9.25446 93.3115 -44.7613  255 255 255
8.04995 92.41 -44.6646  255 255 255
52.5209 105.533 -66.4215  255 255 255
52.5072 105.52 -66.4047  255 255 255
10.3991 92.648 -45.6197  255 255 255
9.03163 92.2033 -45.8168  255 255 255
50.1651 103.647 -66.3459  255 255 255
13.2752 92.6514 -48.4438  255 255 255
55.2509 104.797 -69.0629  255 255 255
-25.9883 78.7264 -25.2305  255 255 255
-20.942 82.701 -31.1308  255 255 255
8.92969 91.3397 -46.412  255 255 255
49.2129 60.5172 -10.7745  255 255 255
48.9837 60.8009 -11.3219  255 255 255
50.1966 58.7172 -8.75012  255 255 255
5.65441 90.2281 -45.0755  255 255 255
16.7798 93.3792 -50.7905  255 255 255
4.57703 89.8146 -44.6786  255 255 255
49.2862 59.7595 -10.7509  255 255 255
49.7541 58.8216 -9.6155  255 255 255
48.6569 60.9702 -12.5987  255 255 255
15.8862 92.4663 -50.3234  255 255 255
-6.21839 86.3019 -39.4781  255 255 255
52.3974 55.3535 -5.84551  255 255 255
0.454177 87.8403 -42.6781  255 255 255
50.2135 58.2087 -9.47259  255 255 255
19.0449 93.4188 -52.5549  255 255 255
49.1833 59.3017 -11.2378  255 255 255
-20.6838 81.546 -31.8564  255 255 255
-27.0845 79.7703 -28.7737  255 255 255
2.40556 88.3304 -44.1062  255 255 255
16.8644 92.5218 -51.693  255 255 255
-1.90158 86.662 -41.7002  255 255 255
-1.32979 86.722 -41.9023  255 255 255
52.1262 55.6747 -7.33466  255 255 255
53.1142 30.9006 25.6995  255 255 255
-44.656 74.3149 -19.6871  255 255 255
-43.1368 74.7902 -20.6497  255 255 255
-36.6647 76.7148 -24.1381  255 255 255
-14.093 83.0419 -36.0363  255 255 255
-47.0317 73.4797 -18.6098  255 255 255
10.4833 89.9621 -49.0524  255 255 255
-11.3719 83.6333 -37.7066  255 255 255
1.46627 87.1806 -44.2727  255 255 255
-38.731 75.5836 -23.0187  255 255 255
11.1796 90.038 -49.6185  255 255 255
-32.4865 77.3777 -26.4361  255 255 255
-26.618 79.153 -29.81  255 255 255
48.9166 59.9884 -14.4376  255 255 255
51.4791 55.8892 -9.1682  255 255 255
-1.23673 86.1587 -43.289  255 255 255
-27.5729 78.7421 -29.4581  255 255 255
20.478 92.3562 -54.8253  255 255 255
48.4887 99.729 -68.4456  255 255 255
49.9177 56.9212 -11.184  255 255 255
49.9177 56.9212 -11.184  255 255 255
49.1596 37.2482 15.5221  255 255 255
52.0172 32.0647 22.4059  255 255 255
-10.8267 83.0404 -38.6824  255 255 255
14.433 90.2663 -51.9049  255 255 255
13.4429 89.8914 -51.5359  255 255 255
-0.365251 85.5879 -44.2713  255 255 255
13.9769 89.7586 -51.7692  255 255 255
-44.3606 73.3253 -21.2109  255 255 255
53.3302 33.9084 18.817  255 255 255
7.8425 87.5999 -48.7646  255 255 255
48.9601 57.7762 -13.7581  255 255 255
56.487 28.1233 26.1853  255 255 255
-67.9423 66.5115 -8.53887  255 255 255
0.794768 85.781 -45.4774  255 255 255
0.647979 85.53 -45.0367  255 255 255
0.794768 85.781 -45.4774  255 255 255
13.9666 89.4391 -52.2303  255 255 255
-68.2195 66.4099 -8.69775  255 255 255
-46.8954 72.2271 -20.1482  255 255 255
54.7326 30.0208 22.8669  255 255 255
55.7056 100.217 -73.6429  255 255 255
-57.8436 68.8582 -14.3458  255 255 255
56.9275 29.28 23.4468  255 255 255
-44.9954 72.1498 -21.4261  255 255 255
20.9566 89.7942 -56.0313  255 255 255
-0.992207 84.2279 -45.3718  255 255 255
58.6215 24.3013 29.2599  255 255 255
51.4491 98.0449 -72.6008  255 255 255
45.8353 96.4193 -70.0847  255 255 255
25.3348 90.7814 -59.7926  255 255 255
63.2882 21.72 31.6354  255 255 255
-2.74544 82.7274 -45.232  255 255 255
48.8199 55.3648 -15.6759  255 255 255
48.7673 55.4621 -15.633  255 255 255
41.4201 94.58 -69.3126  255 255 255
-9.73718 80.405 -42.1051  255 255 255
84.028 105.358 -90.5494  255 255 255
-16.3294 78.3522 -38.5891  255 255 255
-15.3523 78.4375 -39.0289  255 255 255
-15.3523 78.4375 -39.0289  255 255 255
-61.7956 65.9999 -13.5827  255 255 255
48.8177 55.1497 -16.3505  255 255 255
-13.7326 78.501 -40.6067  255 255 255
-13.7407 78.5092 -40.6144  255 255 255
6.07882 83.852 -51.4778  255 255 255
-12.0584 78.8933 -41.6853  255 255 255
62.1174 98.657 -80.5681  255 255 255
59.9088 97.6397 -78.967  255 255 255
12.6054 85.1647 -54.7299  255 255 255
14.7103 85.7621 -55.9119  255 255 255
-15.3365 77.6284 -39.9539  255 255 255
-15.3233 77.6978 -40.1247  255 255 255
-15.2964 77.7368 -40.1349  255 255 255
-56.9814 66.5476 -17.0178  255 255 255
-51.0774 67.6551 -19.4945  255 255 255
-50.9981 68.3661 -20.5364  255 255 255
-11.4629 78.371 -42.1597  255 255 255
13.054 84.7652 -55.5378  255 255 255
39.7949 91.7123 -69.3931  255 255 255
54.9035 23.4957 25.9166  255 255 255
41.8391 92.1842 -70.6412  255 255 255
-49.248 68.3068 -21.5562  255 255 255
38.6721 91.5154 -69.2912  255 255 255
3.20544 81.5154 -49.8719  255 255 255
52.5922 29.5479 17.2249  255 255 255
12.0043 84.1761 -55.2156  255 255 255
55.3823 95.7805 -78.1823  255 255 255
53.8087 47.367 -9.01982  255 255 255
-54.298 66.5527 -18.5844  255 255 255
-65.9732 63.6405 -12.3882  255 255 255
4.50491 82.0239 -51.4726  255 255 255
-60.7461 64.891 -15.6606  255 255 255
-50.7794 67.0831 -20.7872  255 255 255
-66.0662 63.1738 -12.5463  255 255 255
41.4314 91.0385 -71.4133  255 255 255
0.101587 79.9475 -49.0141  255 255 255
40.6569 90.6291 -71.3312  255 255 255
47.7442 92.2371 -75.1543  255 255 255
49.8384 31.7575 11.4331  255 255 255
70.4928 97.657 -87.7556  255 255 255
70.4928 97.657 -87.7556  255 255 255
-14.5976 75.4278 -42.3477  255 255 255
-17.4949 74.5914 -40.9858  255 255 255
-19.5582 73.8003 -39.5252  255 255 255
29.9054 86.5866 -66.7453  255 255 255
-59.0672 64.1952 -18.1879  255 255 255
-5.16026 77.4552 -48.1565  255 255 255
30.2853 86.2817 -67.3205  255 255 255
6.82588 80.4086 -54.8752  255 255 255
39.6746 88.7444 -72.5114  255 255 255
-10.3439 75.8833 -45.4984  255 255 255
15.5026 82.0583 -59.3189  255 255 255
57.4625 40.4764 -4.90497  255 255 255
13.3645 81.641 -58.8633  255 255 255
21.9687 83.692 -63.49  255 255 255
-48.5209 65.9887 -24.2818  255 255 255
38.0829 87.4773 -72.2407  255 255 255
-50.6151 65.3222 -23.2461  255 255 255
57.4299 40.0162 -5.38383  255 255 255
-49.9756 65.326 -23.815  255 255 255
-21.2687 72.2899 -39.9651  255 255 255
52.5175 26.6056 15.2477  255 255 255
52.578 26.6309 15.1654  255 255 255
58.0833 20.5366 23.6524  255 255 255
-10.3278 74.9711 -46.089  255 255 255
25.5895 84.0559 -66.3481  255 255 255
55.8395 90.7509 -82.0497  255 255 255
-24.4853 71.0712 -38.6046  255 255 255
27.9648 83.8571 -67.9424  255 255 255
27.9577 83.8545 -67.9335  255 255 255
55.5359 40.3441 -7.47483  255 255 255
-25.3013 70.5948 -38.3148  255 255 255
-25.3173 70.5672 -38.227  255 255 255
56.0621 90.4852 -83.0995  255 255 255
27.3602 83.4442 -68.0285  255 255 255
27.3785 83.4602 -68.0517  255 255 255
-62.5109 61.617 -17.7986  255 255 255
12.6222 79.5355 -59.6901  255 255 255
-10.8741 73.738 -47.0027  255 255 255
-10.8581 73.7446 -47.0633  255 255 255
42.5522 86.4103 -75.8278  255 255 255
1.0356 76.2682 -53.2485  255 255 255
-13.7455 72.7567 -45.5518  255 255 255
7.17679 77.6117 -57.5427  255 255 255
-37.3492 66.919 -32.575  255 255 255
-49.6472 60.8501 -20.9847  255 255 255
29.4441 82.8476 -70.4059  255 255 255
-20.3945 70.6223 -42.4337  255 255 255
-41.9291 65.3929 -30.2645  255 255 255
30.9334 83.0754 -71.905  255 255 255
51.8594 24.921 13.2688  255 255 255
52.4903 43.1506 -15.2277  255 255 255
-36.4141 66.1366 -33.009  255 255 255
53.2784 23.674 14.6901  255 255 255
-44.0477 64.6338 -29.4661  255 255 255
56.5016 37.7138 -8.20074  255 255 255
-9.57439 72.4003 -49.0127  255 255 255
-43.3359 64.6677 -30.1614  255 255 255
12.4561 77.5813 -61.529  255 255 255
-44.2143 64.2209 -29.5046  255 255 255
-46.1262 63.5772 -28.6716  255 255 255
-67.2856 58.2153 -15.92  255 255 255
-45.7608 63.4775 -28.755  255 255 255
16.1337 77.5269 -63.5028  255 255 255
-49.6665 62.5276 -26.8001  255 255 255
-48.5222 61.9815 -26.2287  255 255 255
14.0689 76.9577 -62.652  255 255 255
14.6854 77.1193 -62.9127  255 255 255
56.5319 86.9515 -86.108  255 255 255
-50.7221 62.0272 -26.101  255 255 255
-50.7221 62.0272 -26.101  255 255 255
-43.4623 63.6957 -30.3293  255 255 255
-43.476 63.6587 -30.2632  255 255 255
14.468 76.7843 -63.2352  255 255 255
-42.9115 63.7495 -31.165  255 255 255
-46.1441 62.7388 -29.0037  255 255 255
-16.3213 69.4093 -45.8022  255 255 255
-67.5855 58.0081 -16.8841  255 255 255
-4.41604 72.3445 -53.1374  255 255 255
57.5233 86.6332 -87.5921  255 255 255
-65.8536 58.1856 -17.8043  255 255 255
-64.3843 58.4599 -18.5343  255 255 255
16.1006 77.069 -65.3397  255 255 255
-66.7749 57.7564 -17.5658  255 255 255
58.8504 16.0586 21.6124  255 255 255
-17.3519 68.4903 -45.9922  255 255 255
52.9753 84.6078 -85.4897  255 255 255
-42.7868 62.9521 -31.8132  255 255 255
-42.78 62.9482 -31.703  255 255 255
-42.7786 62.7793 -31.5222  255 255 255
-56.0039 59.7572 -23.6792  255 255 255
-69.7496 56.8778 -16.283  255 255 255
-69.7496 56.8778 -16.283  255 255 255
-42.0129 62.9171 -32.1697  255 255 255
-41.9959 62.9365 -32.1186  255 255 255
17.3372 76.6055 -66.4774  255 255 255
19.8235 77.1259 -67.9238  255 255 255
-56.3947 59.7437 -24.0656  255 255 255
-56.3739 59.7726 -24.0537  255 255 255
-36.1417 64.2203 -35.6701  255 255 255
-28.5882 65.6308 -40.3716  255 255 255
-28.5834 65.7067 -40.4013  255 255 255
-28.5882 65.6308 -40.3716  255 255 255
-46.7563 61.495 -29.7408  255 255 255
-46.7456 61.4837 -29.7269  255 255 255
-66.0499 57.0064 -18.4415  255 255 255
-4.0303 70.8024 -54.6982  255 255 255
48.0196 26.4364 5.07359  255 255 255
-67.0809 56.6838 -18.2621  255 255 255
-47.5069 60.8566 -29.4955  255 255 255
13.419 74.693 -65.0619  255 255 255
-68.2102 56.3136 -17.463  255 255 255
-26.9144 65.6158 -41.9792  255 255 255
16.9317 75.2397 -66.956  255 255 255
16.9317 75.2397 -66.956  255 255 255
-21.797 66.3079 -44.5068  255 255 255
18.7722 75.3221 -68.0063  255 255 255
18.8612 75.4484 -68.2855  255 255 255
-57.4118 58.6107 -24.1973  255 255 255
-57.4038 58.6689 -24.2925  255 255 255
-50.9752 59.8168 -27.7131  255 255 255
-50.9755 59.8682 -27.8205  255 255 255
-24.2792 65.6659 -43.6233  255 255 255
14.0664 74.2596 -65.9077  255 255 255
55.9305 34.2793 -10.5583  255 255 255
58.1669 14.4678 20.9192  255 255 255
-4.77832 69.7118 -55.1103  255 255 255
-4.71039 69.8395 -55.3895  255 255 255
-48.111 60.3662 -30.2232  255 255 255
-67.039 56.0057 -19.1195  255 255 255
-67.6133 55.7603 -18.7939  255 255 255
61.5146 83.4384 -92.3924  255 255 255
65.4591 84.3983 -94.9706  255 255 255
65.4274 84.4112 -94.9221  255 255 255
2.05252 70.5655 -59.9562  255 255 255
30.8306 77.2564 -76.6744  255 255 255
56.6862 15.791 17.3212  255 255 255
57.9655 14.5805 18.9822  255 255 255
-54.6474 57.901 -26.4518  255 255 255
53.9379 13.9982 20.1025  255 255 255
45.3077 79.3349 -84.8781  255 255 255
-35.6929 61.7181 -38.3112  255 255 255
60.7463 82.5311 -94.4027  255 255 255
-55.4904 56.7735 -27.7241  255 255 255
-6.17747 66.9722 -57.0492  255 255 255
6.82751 69.5032 -64.6131  255 255 255
58.3679 79.9859 -93.7974  255 255 255
-59.3652 55.5903 -25.4183  255 255 255
-6.179 66.3874 -56.9348  255 255 255
-49.0928 57.4151 -31.9506  255 255 255
56.8834 30.6287 -12.6647  255 255 255
12.3171 69.714 -68.2226  255 255 255
56.4327 31.1104 -13.918  255 255 255
52.4317 17.9695 9.08441  255 255 255
-50.0689 56.8041 -31.6588  255 255 255
-50.0678 56.81 -31.6656  255 255 255
12.8296 70.747 -70.8759  255 255 255
-41.2556 58.2437 -36.6785  255 255 255
65.8027 80.1056 -99.1871  255 255 255
32.9259 73.5105 -80.7836  255 255 255
52.3674 17.128 8.89371  255 255 255
59.6199 78.0392 -96.0787  255 255 255
-50.3239 56.2919 -32.5492  255 255 255
-25.7723 60.8852 -47.2386  255 255 255
-66.2058 51.931 -21.601  255 255 255
74.9737 80.5219 -105.347  255 255 255
40.2053 73.3445 -86.3512  255 255 255
50.8746 18.0161 5.40219  255 255 255
55.5683 29.6761 -15.8617  255 255 255
-28.5143 59.4815 -45.932  255 255 255
32.3088 71.6966 -82.3963  255 255 255
55.6871 29.2715 -15.2864  255 255 255
50.9173 34.8064 -24.4118  255 255 255
-50.5616 54.9148 -32.9866  255 255 255
-65.11 51.8204 -23.6716  255 255 255
33.8944 71.7254 -84.0747  255 255 255
51.0093 33.7002 -23.2769  255 255 255
-65.4277 48.8865 -19.0873  255 255 255
50.9236 34.0156 -23.9821  255 255 255
-26.0033 59.1232 -47.8895  255 255 255
-50.8687 53.8563 -32.8035  255 255 255
72.6561 78.0086 -106.238  255 255 255
47.9582 19.6665 0.390062  255 255 255
17.7467 67.0184 -74.9781  255 255 255
15.0037 66.2383 -73.8101  255 255 255
56.2728 10.7968 12.9254  255 255 255
52.8539 30.4756 -21.1299  255 255 255
49.7183 17.344 2.70563  255 255 255
55.8515 27.2847 -16.5952  255 255 255
-37.0019 55.9322 -42.4901  255 255 255
49.2452 34.4286 -28.46  255 255 255
50.9601 32.0759 -24.9959  255 255 255
50.96 32.0842 -25.0034  255 255 255
-57.5813 51.7392 -30.1692  255 255 255
-57.5968 51.6814 -29.9858  255 255 255
5.78975 63.3027 -69.0591  255 255 255
54.2426 28.4153 -20.1416  255 255 255
-51.9046 52.3004 -33.6711  255 255 255
53.9641 28.5821 -20.6881  255 255 255
53.4439 12.8673 7.61276  255 255 255
52.6381 29.85 -22.758  255 255 255
16.9346 65.0247 -76.0931  255 255 255
53.8227 28.4582 -21.2498  255 255 255
-56.8069 51.3297 -31.3591  255 255 255
-38.2181 54.7332 -42.8264  255 255 255
54.3989 27.5821 -20.2215  255 255 255
42.9906 69.156 -91.4887  255 255 255
24.9138 64.8565 -79.4994  255 255 255
51.4226 14.552 3.51218  255 255 255
56.4934 5.41789 17.5063  255 255 255
-37.4858 53.7433 -43.9639  255 255 255
62.9193 1.63272 22.0916  255 255 255
-5.1991 58.8601 -64.1794  255 255 255
-65.0596 48.2821 -27.5753  255 255 255
-55.3516 49.9836 -33.6123  255 255 255
46.5026 67.7777 -96.023  255 255 255
-39.8755 52.3723 -43.4696  255 255 255
51.2836 10.5895 6.36024  255 255 255
52.8228 26.8196 -24.23  255 255 255
30.7689 64.0928 -86.86  255 255 255
-33.4548 52.9044 -47.9659  255 255 255
55.2786 23.802 -20.6304  255 255 255
22.9058 62.6877 -83.2868  255 255 255
57.2778 5.65153 12.3069  255 255 255
-50.8606 49.5226 -37.4531  255 255 255
-11.7239 55.9194 -62.2207  255 255 255
12.4898 60.4769 -78.393  255 255 255
51.3309 11.3156 1.70154  255 255 255
-15.4379 54.7944 -60.5827  255 255 255
-23.251 53.055 -55.2793  255 255 255
48.11 29.6749 -33.7324  255 255 255
19.7019 60.2933 -82.9653  255 255 255
-60.0752 46.8294 -32.6993  255 255 255
-9.64942 55.0111 -64.6717  255 255 255
25.4671 60.2534 -86.6673  255 255 255
-65.5176 42.9085 -24.8223  255 255 255
-24.732 51.853 -55.6703  255 255 255
51.0876 9.90429 0.324751  255 255 255
50.9291 9.85969 0.530298  255 255 255
25.5776 59.9273 -87.6478  255 255 255
-64.0988 44.9591 -30.3636  255 255 255
-47.9346 47.0715 -40.6419  255 255 255
-65.6691 44.7482 -30.1742  255 255 255
-28.9693 50.5747 -53.7994  255 255 255
66.234 -5.60564 24.7955  255 255 255
53.8521 6.53225 4.63413  255 255 255
54.8669 21.0592 -24.1364  255 255 255
5.55511 55.3956 -75.9878  255 255 255
51.0147 24.2215 -30.3106  255 255 255
-8.89804 52.5399 -67.0347  255 255 255
57.7037 -0.0436839 13.7555  255 255 255
58.1801 1.01998 11.3556  255 255 255
63.2373 -3.86063 19.2679  255 255 255
-59.4974 44.6114 -35.5909  255 255 255
58.7797 0.301072 12.0778  255 255 255
56.0645 3.12834 7.14543  255 255 255
-5.45399 52.482 -70.2597  255 255 255
22.8772 56.8846 -88.3441  255 255 255
58.5355 -1.93005 16.1522  255 255 255
49.7217 9.24431 -3.80141  255 255 255
57.6218 1.19094 9.51633  255 255 255
52.1809 6.58271 0.370391  255 255 255
-55.0311 44.357 -38.4655  255 255 255
49.4123 23.5924 -33.8518  255 255 255
59.0517 -0.822151 11.4584  255 255 255
-26.0411 47.4833 -56.6228  255 255 255
56.8552 1.28479 7.70065  255 255 255
-30.9077 47.5334 -55.0726  255 255 255
-30.9077 47.5334 -55.0726  255 255 255
48.157 9.79542 -6.67052  255 255 255
54.4136 3.6533 3.69721  255 255 255
59.2981 -1.13589 11.5975  255 255 255
66.9429 -8.74167 24.7202  255 255 255
-59.2687 42.9392 -36.5672  255 255 255
62.2876 -4.43802 16.2578  255 255 255
-12.7522 49.2071 -67.5036  255 255 255
62.4446 -4.65393 15.834  255 255 255
-63.1757 41.6856 -34.0189  255 255 255
-11.0622 49.1818 -68.7801  255 255 255
6.86296 51.734 -80.5574  255 255 255
57.7238 -0.711225 8.71826  255 255 255
-59.1927 42.0939 -37.6437  255 255 255
58.1428 -1.2443 9.01203  255 255 255
58.3424 -1.56207 9.34479  255 255 255
61.3599 -4.41954 13.7562  255 255 255
-67.8693 40.1355 -32.0721  255 255 255
-51.6235 42.0578 -42.0308  255 255 255
-51.5199 42.7353 -43.4494  255 255 255
63.3631 -6.95613 17.1303  255 255 255
-66.1556 39.8284 -32.6312  255 255 255
66.885 -10.6171 23.2132  255 255 255
66.885 -10.6171 23.2132  255 255 255
58.0968 -2.04454 8.26699  255 255 255
7.37442 -1.95799 25.1811  255 255 255
60.1111 -4.20594 11.6471  255 255 255
66.6638 -10.5656 22.7642  255 255 255
-0.48866 -1.80298 27.1061  255 255 255
61.2545 -5.25842 13.2812  255 255 255
60.9582 -5.00126 12.808  255 255 255
-67.9942 39.656 -32.9  255 255 255
-0.233535 -1.81631 27.1048  255 255 255
7.32149 -2.31706 25.4237  255 255 255
53.6702 15.8393 -29.3971  255 255 255
-42.0088 42.5847 -49.9574  255 255 255
60.1836 -4.8809 11.2391  255 255 255
-41.6509 42.6062 -50.7955  255 255 255
58.9597 -3.88595 9.18311  255 255 255
-44.2473 41.5941 -48.3094  255 255 255
-64.1379 39.4104 -36.2719  255 255 255
-18.1157 44.3871 -65.1443  255 255 255
1.48016 47.8095 -79.7332  255 255 255
-53.4796 40.1776 -43.822  255 255 255
-13.819 45.2938 -70.8163  255 255 255
5.99847 -6.76073 31.9755  255 255 255
53.0666 0.433976 -0.801254  255 255 255
-18.3951 43.3573 -65.9001  255 255 255
-52.977 39.6962 -44.2025  255 255 255
-59.9447 39.0362 -40.26  255 255 255
-53.5667 39.4328 -43.9146  255 255 255
-41.7847 41.2609 -52.4438  255 255 255
67.2842 -13.4074 22.5685  255 255 255
-55.9149 39.3103 -43.0843  255 255 255
-26.7241 42.4853 -61.577  255 255 255
3.93341 -7.74118 33.6739  255 255 255
-17.9475 42.1839 -64.6135  255 255 255
-57.3634 38.6204 -42.1333  255 255 255
-42.0809 40.5084 -52.4172  255 255 255
60.2313 -6.97866 9.8369  255 255 255
-11.6904 -2.17203 26.7383  255 255 255
3.8314 -8.42288 33.7648  255 255 255
-1.25061 -7.53105 33.9067  255 255 255
-1.02432 -7.85749 34.1173  255 255 255
-4.9538 -6.74562 33.1412  255 255 255
55.638 -3.15232 1.48845  255 255 255
-0.517585 -8.41394 34.5136  255 255 255
-1.94268 -8.25408 34.431  255 255 255
61.2216 -8.84602 10.8593  255 255 255
-59.5218 37.1206 -41.6239  255 255 255
-41.2763 39.3055 -54.1242  255 255 255
-28.3739 40.5925 -63.3215  255 255 255
-59.8042 36.7304 -41.4361  255 255 255
-12.5167 -3.91814 27.6841  255 255 255
48.6047 2.31715 -10.8693  255 255 255
-14.6857 -1.36682 22.7236  255 255 255
-35.9942 39.5109 -58.5949  255 255 255
61.5598 -9.97589 11.2278  255 255 255
68.5398 -14.5534 18.3108  255 255 255
68.5398 -14.5534 18.3108  255 255 255
-5.05744 -8.50527 34.1105  255 255 255
16.0819 35.7086 -73.7058  255 255 255
-8.31038 -7.49463 32.621  255 255 255
-13.4018 41.3595 -74.5033  255 255 255
-14.461 -3.8291 26.8587  255 255 255
-8.67248 41.5309 -77.2769  255 255 255
-8.57746 41.6782 -77.7044  255 255 255
-6.45268 41.7092 -79.1638  255 255 255
-4.51663 -9.48065 34.7248  255 255 255
-7.83119 -8.52886 33.3213  255 255 255
68.8775 -16.1021 18.1385  255 255 255
-7.9855 -8.84845 33.4949  255 255 255
58.7979 -11.9616 12.3484  255 255 255
61.2964 -11.3139 9.85496  255 255 255
-54.7336 35.498 -47.0845  255 255 255
47.8996 0.967957 -13.0957  255 255 255
-36.3116 37.3535 -59.6471  255 255 255
63.2501 -13.0714 12.2801  255 255 255
63.2469 -13.0751 12.2894  255 255 255
-11.2047 -7.91013 31.3824  255 255 255
-7.95016 -9.61813 33.8209  255 255 255
55.538 -6.62889 -0.604765  255 255 255
48.6114 -0.394451 -12.3246  255 255 255
5.4712 32.583 -69.7472  255 255 255
53.493 -4.93504 -4.21975  255 255 255
7.93767 31.4745 -68.9755  255 255 255
-15.5708 -4.95261 25.7369  255 255 255
-60.8112 33.8014 -43.8481  255 255 255
54.3319 -5.93776 -3.20018  255 255 255
-56.5128 34.1457 -47.0427  255 255 255
-43.4084 35.1339 -56.0341  255 255 255
-40.8638 35.2524 -58.3357  255 255 255
-52.2496 33.7879 -50.3088  255 255 255
60.8733 -12.6196 7.18684  255 255 255
59.8164 -11.8471 5.4074  255 255 255
-15.2306 -6.99753 27.798  255 255 255
-15.9412 -6.17503 26.2045  255 255 255
-28.2151 35.8787 -67.5239  255 255 255
-7.66613 -11.3378 34.5287  255 255 255
-53.9243 33.2955 -49.4814  255 255 255
58.8902 -11.1661 3.67682  255 255 255
52.8546 -5.82885 -6.3594  255 255 255
59.829 -12.2271 5.5614  255 255 255
-14.5814 -8.17512 29.1566  255 255 255
51.0173 -4.52223 -9.66893  255 255 255
-33.308 34.3652 -65.0532  255 255 255
-36.132 33.8591 -62.8492  255 255 255
-14.9311 -8.59177 28.6787  255 255 255
60.194 -13.7477 5.11234  255 255 255
67.2605 -18.1036 12.2158  255 255 255
-5.49013 -13.6049 35.535  255 255 255
57.2203 -11.4095 0.201032  255 255 255
-9.74491 -12.1499 33.8965  255 255 255
4.0378 -15.9979 35.7087  255 255 255
68.0618 -19.8338 13.7151  255 255 255
4.30636 -16.1325 35.4146  255 255 255
59.8104 -14.3707 3.94019  255 255 255
50.8089 -6.82483 -11.5465  255 255 255
-18.9628 -3.59549 13.8663  255 255 255
-2.38762 -15.92 36.1808  255 255 255
-56.7331 26.2954 -45.623  255 255 255
-22.1687 -0.476095 5.09282  255 255 255
56.59 -13.1369 -3.42331  255 255 255
55.4555 -13.4053 -2.15207  255 255 255
-16.6298 -10.7972 28.2099  255 255 255
57.6823 -14.4173 -1.55609  255 255 255
-19.805 -5.53311 15.7948  255 255 255
58.5558 -15.4956 0.0460346  255 255 255
-6.63743 -16.0362 35.3836  255 255 255
-6.63743 -16.0362 35.3836  255 255 255
-44.2695 28.8695 -61.2555  255 255 255
58.8321 -16.1136 0.347699  255 255 255
58.8142 -16.087 0.344451  255 255 255
-12.1388 -14.2128 32.8274  255 255 255
-20.2698 -6.35518 16.7543  255 255 255
6.98331 -18.8176 34.3292  255 255 255
-0.407842 -18.1922 36.1741  255 255 255
-19.5561 -9.25478 22.9753  255 255 255
-9.21625 -16.0082 34.5502  255 255 255
56.2234 -14.8018 -4.95679  255 255 255
63.1076 -19.2882 2.743  255 255 255
8.46956 -19.6542 33.361  255 255 255
8.46956 -19.6542 33.361  255 255 255
-23.561 -3.92057 8.99605  255 255 255
53.6499 -13.6694 -9.37397  255 255 255
-19.5007 -10.9389 23.7434  255 255 255
-4.50531 -18.5783 35.8165  255 255 255
-4.50531 -18.5783 35.8165  255 255 255
3.47389 -20.0044 34.8711  255 255 255
-19.4164 -11.3415 24.2729  255 255 255
-9.6825 -17.1201 34.3039  255 255 255
-21.8502 -10.1783 21.2129  255 255 255
-4.5707 -19.2552 35.7512  255 255 255
24.198 -22.0728 25.8956  255 255 255
3.86524 -21.2385 34.7458  255 255 255
3.92719 -21.207 34.6531  255 255 255
-18.2655 -13.7859 26.9289  255 255 255
-18.2671 -13.7855 26.9584  255 255 255
1.59635 -21.1439 35.1849  255 255 255
60.5701 -21.4124 0.442535  255 255 255
60.8282 -21.8708 1.28049  255 255 255
-8.94778 -18.8217 34.4481  255 255 255
60.0751 -21.2439 -0.891857  255 255 255
-17.928 -14.176 26.4023  255 255 255
-17.928 -14.176 26.4023  255 255 255
-7.66124 -19.5457 34.839  255 255 255
-3.31964 -20.7985 35.3343  255 255 255
6.36327 -22.4552 33.6831  255 255 255
3.68932 -22.501 34.6211  255 255 255
-65.2194 21.4972 -50.798  255 255 255
-20.1376 -15.0326 26.8673  255 255 255
-28.1913 -9.68507 16.1513  255 255 255
-28.2102 -9.70924 16.2275  255 255 255
59.415 -22.4133 -3.15729  255 255 255
7.4221 -24.2562 34.7798  255 255 255
10.684 -24.9119 33.6082  255 255 255
62.4258 -27.9778 5.39245  255 255 255
-26.1286 -12.941 19.9476  255 255 255
-22.4175 -16.0371 26.1016  255 255 255
62.101 -26.8458 0.898095  255 255 255
-1.01187 -24.2475 35.8339  255 255 255
0.381002 -24.7943 36.2102  255 255 255
-22.3737 -16.304 25.95  255 255 255
-17.5166 -19.1565 31.2477  255 255 255
66.417 -30.7462 8.21528  255 255 255
62.7352 -27.396 0.144923  255 255 255
58.6095 -24.4315 -6.70997  255 255 255
57.3488 -24.5374 -5.2346  255 255 255
-28.1295 -13.9475 21.474  255 255 255
63.801 -28.8213 2.45711  255 255 255
-28.4884 -14.3713 21.6975  255 255 255
-27.608 2.72961 -34.0253  255 255 255
-16.8884 -21.0433 32.3547  255 255 255
66.7495 -29.7687 -1.65054  255 255 255
-15.7578 -22.1185 33.0374  255 255 255
-7.67094 -25.0788 36.1972  255 255 255
-16.0207 -22.251 32.846  255 255 255
63.3136 -30.9695 0.700844  255 255 255
14.3703 -29.9294 34.1238  255 255 255
-24.0472 -18.5934 26.4198  255 255 255
-28.1721 -17.2033 24.8291  255 255 255
-17.9752 -21.5643 31.4593  255 255 255
-18.1766 -21.5399 31.3305  255 255 255
-13.3914 -23.7097 34.4895  255 255 255
63.3242 -31.1318 -0.695675  255 255 255
-18.8199 -21.4509 30.7787  255 255 255
8.05168 -29.6977 36.3799  255 255 255
62.8709 -31.3731 -0.649626  255 255 255
-18.5609 -21.811 30.8713  255 255 255
-18.5659 -21.8135 30.8848  255 255 255
13.9276 -30.5592 34.268  255 255 255
-15.7558 -23.1995 32.7587  255 255 255
-6.51276 -26.539 35.974  255 255 255
-3.53813 -27.5971 36.4709  255 255 255
5.59132 -30.0723 36.7318  255 255 255
12.5336 -31.0344 34.3655  255 255 255
-26.6069 -19.4668 26.6895  255 255 255
-22.0176 -21.3834 29.5387  255 255 255
-14.5359 -24.4043 33.2937  255 255 255
-13.3633 -24.8923 34.134  255 255 255
71.3135 -34.4815 -2.06074  255 255 255
13.1337 -31.2128 33.7861  255 255 255
65.1493 -34.6474 2.56065  255 255 255
65.1493 -34.6474 2.56065  255 255 255
-28.082 -18.6335 23.849  255 255 255
-59.9374 5.3138 -35.0379  255 255 255
-34.0904 -1.85745 -30.2224  255 255 255
2.89325 -30.3595 37.5406  255 255 255
14.6857 -31.6944 32.0217  255 255 255
14.6857 -31.6944 32.0217  255 255 255
68.8695 -34.7265 -2.53269  255 255 255
67.7969 -37.526 6.48197  255 255 255
-20.4422 -23.5464 31.8745  255 255 255
-25.3888 -21.6078 28.1561  255 255 255
-23.4133 -23.3013 31.5552  255 255 255
-25.8456 -21.4693 27.0229  255 255 255
-26.55 -21.0733 26.3108  255 255 255
-21.1901 -24.3572 32.7  255 255 255
-31.6314 -5.58209 -25.4711  255 255 255
67.7899 -38.7881 5.87976  255 255 255
1.77727 -31.7733 38.3448  255 255 255
5.29396 -32.4663 37.3391  255 255 255
-1.84542 -31.5026 38.9303  255 255 255
-25.9954 -22.0638 25.6619  255 255 255
-23.0397 -25.1166 30.5663  255 255 255
-23.0627 -25.1301 30.6422  255 255 255
-15.57 -28.7091 37.1522  255 255 255
-14.5431 -29.4623 38.6238  255 255 255
-0.331303 -32.8098 37.5529  255 255 255
-48.3206 -5.29443 -23.3229  255 255 255
-2.24635 -32.5739 37.9943  255 255 255
61.4819 -41.3419 8.91487  255 255 255
-12.4351 -30.0731 36.7346  255 255 255
-10.6632 -30.7832 36.9687  255 255 255
-37.2285 -11.3721 -17.1673  255 255 255
-39.3015 -10.9196 -17.3549  255 255 255
4.36777 -35.1761 34.8577  255 255 255
-12.7548 -31.0052 35.7162  255 255 255
-3.00689 -33.9232 36.7684  255 255 255
5.79243 -35.9457 34.2567  255 255 255
-4.95489 -34.2529 38.1596  255 255 255
-19.2722 -29.0517 31.4485  255 255 255
-42.2916 -12.1943 -15.9814  255 255 255
12.2807 -37.2356 28.8581  255 255 255
-40.7024 -13.5917 -14.2762  255 255 255
-18.8237 -29.9154 31.2196  255 255 255
12.5307 -37.5823 28.5319  255 255 255
-25.0977 -26.9975 25.0252  255 255 255
11.3408 -37.6279 29.1538  255 255 255
-46.3021 -12.5738 -16.7578  255 255 255
-67.6254 -7.11105 -19.6047  255 255 255
-49.6054 -12.5789 -14.831  255 255 255
-40.8419 -15.6495 -11.6321  255 255 255
-23.5603 -28.8243 27.2785  255 255 255
-18.499 -31.2879 30.5623  255 255 255
-15.9801 -32.7987 33.8984  255 255 255
-5.51828 -35.9098 34.8903  255 255 255
9.44066 -38.9322 29.3503  255 255 255
-5.56314 -36.0421 34.3766  255 255 255
5.46161 -38.9316 32.5222  255 255 255
-23.1897 -29.6431 25.2519  255 255 255
-22.1987 -30.4542 27.3007  255 255 255
-7.51553 -35.9266 33.9778  255 255 255
5.33814 -39.0899 32.2342  255 255 255
9.33769 -39.5918 28.7525  255 255 255
14.9357 -40.2553 24.7257  255 255 255
14.1257 -40.2722 25.2968  255 255 255
-50.268 -16.0467 -10.6772  255 255 255
-44.0898 -18.087 -8.84415  255 255 255
-44.0086 -18.0186 -9.27544  255 255 255
1.8632 -38.9063 32.0977  255 255 255
-44.1979 -18.596 -7.99984  255 255 255
-3.94066 -37.7964 33.7484  255 255 255
-13.1515 -35.7487 31.5723  255 255 255
-9.44171 -37.2844 32.0193  255 255 255
-5.84239 -38.6389 32.4232  255 255 255
-19.5832 -34.1296 27.9964  255 255 255
-7.02636 -38.584 32.2706  255 255 255
-6.90656 -38.5661 32.0336  255 255 255
-5.86024 -39.1054 32.3459  255 255 255
-52.9666 -19.4493 -6.30894  255 255 255
-52.9544 -19.4261 -6.48915  255 255 255
-19.7127 -34.4615 27.6785  255 255 255
-19.4296 -34.5923 27.7418  255 255 255
-19.1017 -34.7871 28.0408  255 255 255
-19.2218 -34.8301 28.3593  255 255 255
-1.40459 -40.4879 31.6701  255 255 255
-19.8772 -34.6176 27.5884  255 255 255
-12.0836 -37.5914 30.9657  255 255 255
-22.6631 -33.5691 24.3962  255 255 255
-1.47673 -40.9844 30.1985  255 255 255
-14.5877 -37.3977 29.5121  255 255 255
-21.286 -35.0411 25.2504  255 255 255
-21.1789 -35.0264 24.9956  255 255 255
-10.4839 -39.1895 30.4368  255 255 255
-60.121 -20.2321 -4.65803  255 255 255
-22.9656 -34.8224 22.9436  255 255 255
-22.0024 -35.4625 23.6184  255 255 255
-22.8124 -35.7779 23.0421  255 255 255
-35.2169 -31.3173 9.04514  255 255 255
-5.95273 -43.2704 30.5987  255 255 255
-16.018 -40.2482 28.4852  255 255 255
-44.1478 -28.9084 3.30855  255 255 255
-33.1709 -33.6065 12.9002  255 255 255
-43.3782 -31.5692 6.07712  255 255 255
-26.8317 -39.0195 23.3809  255 255 255
-26.1147 -39.5414 23.7364  255 255 255
-45.6169 -32.2836 7.24407  255 255 255
-6.95147 -47.6333 31.3694  255 255 255
-25.7954 -41.7886 22.6621  255 255 255
-27.3732 -41.2909 21.2634  255 255 255
-12.0131 -46.8808 29.4697  255 255 255
-48.1573 -34.5515 9.98276  255 255 255
-18.0366 -45.0841 28.2647  255 255 255
-18.958 -44.9698 27.8616  255 255 255
-18.9642 -45.6149 27.189  255 255 255
-28.0946 -42.3443 21.2826  255 255 255
-55.3751 -34.8189 10.5519  255 255 255
12.2105 -57.6435 31.3393  255 255 255
14.732 -61.8069 36.3023  255 255 255
13.371 -61.4932 36.0919  255 255 255
15.4923 -62.6631 37.4156  255 255 255
2.0441 -57.9196 32.6937  255 255 255
8.37745 -60.3847 33.3363  255 255 255
-13.4547 -53.2517 30.6767  255 255 255
0.948386 -58.7494 30.8624  255 255 255
-1.58897 -59.3122 32.8003  255 255 255
-17.3361 -54.0567 29.9637  255 255 255
-0.673611 -60.7745 34.8234  255 255 255
-15.5063 -55.6886 31.8835  255 255 255
-12.8158 -57.009 33.1991  255 255 255
-13.0353 -56.9281 33.0021  255 255 255
12.3588 97.5112 -42.1463  255 255 255
10.9505 96.2879 -43.6021  255 255 255
3.13585 93.0645 -39.8277  255 255 255
3.18542 93.1251 -39.9003  255 255 255
9.26288 94.7717 -43.3211  255 255 255
12.2451 95.7953 -45.0193  255 255 255
10.1014 94.9653 -44.0457  255 255 255
25.6439 99.2067 -52.1304  255 255 255
38.5052 103.245 -58.6871  255 255 255
41.2378 104.038 -60.0058  255 255 255
26.5946 99.326 -52.8779  255 255 255
24.7996 98.5073 -51.9461  255 255 255
40.0301 103.244 -59.7215  255 255 255
64.1305 109.98 -70.5749  255 255 255
7.5592 93.2503 -43.8524  255 255 255
51.6992 106.249 -65.124  255 255 255
51.5879 106.18 -65.0313  255 255 255
40.448 102.844 -60.2172  255 255 255
40.4347 102.878 -60.2585  255 255 255
8.58766 92.9681 -44.4351  255 255 255
9.18024 92.8674 -45.1008  255 255 255
8.6256 92.1839 -45.4768  255 255 255
30.3391 98.8743 -56.6188  255 255 255
10.4233 92.182 -46.08  255 255 255
63.8738 107.918 -72.3756  255 255 255
52.5659 104.364 -67.207  255 255 255
49.5724 62.0699 -12.146  255 255 255
49.7831 59.288 -8.55415  255 255 255
56.3707 105.416 -69.7388  255 255 255
52.9754 56.599 -5.89084  255 255 255
-27.1633 79.7619 -26.5546  255 255 255
36.9808 99.515 -60.5779  255 255 255
50.7555 57.1941 -6.99355  255 255 255
18.6364 93.9039 -51.637  255 255 255
-11.5055 85.08 -36.2675  255 255 255
1.42527 88.4186 -42.7936  255 255 255
47.6931 38.45 17.6111  255 255 255
-13.3944 84.2566 -35.5029  255 255 255
19.5446 93.8449 -52.5613  255 255 255
48.9394 59.9401 -11.57  255 255 255
-1.02742 87.37 -41.9963  255 255 255
8.46691 90.0858 -46.8175  255 255 255
-2.397 86.7684 -41.09  255 255 255
22.8479 94.6257 -54.6433  255 255 255
16.0147 92.2421 -51.2664  255 255 255
-31.3393 78.4725 -26.7074  255 255 255
54.0087 32.712 23.3815  255 255 255
-64.9494 67.8721 -8.11803  255 255 255
50.3055 101.216 -68.9399  255 255 255
-34.2396 76.8417 -25.5226  255 255 255
-10.558 83.5691 -38.2517  255 255 255
-10.5413 83.6035 -38.3083  255 255 255
-36.015 76.2865 -24.7786  255 255 255
51.5676 36.3483 17.1424  255 255 255
-4.05943 85.1672 -41.8629  255 255 255
53.2029 34.4306 19.2818  255 255 255
16.9891 91.3182 -53.247  255 255 255
51.3556 35.5531 17.734  255 255 255
58.0437 47.4659 0.40565  255 255 255
-14.2418 81.7173 -36.4699  255 255 255
-8.75436 83.2921 -39.9405  255 255 255
51.9382 33.5954 19.5958  255 255 255
-36.8915 75.5354 -25.2268  255 255 255
54.7457 29.7866 24.4503  255 255 255
-4.54007 84.3535 -42.4226  255 255 255
-15.4152 81.2697 -36.7555  255 255 255
67.3751 103.954 -78.8612  255 255 255
51.8659 33.5164 18.9918  255 255 255
55.0945 29.7784 23.6473  255 255 255
2.82541 86.0152 -46.5894  255 255 255
58.5566 101.008 -74.8069  255 255 255
55.4051 28.0898 25.6891  255 255 255
-58.9265 68.6975 -13.7668  255 255 255
55.1161 29.2548 23.6881  255 255 255
59.608 27.2556 26.0723  255 255 255
59.608 27.2556 26.0723  255 255 255
51.6024 98.6583 -71.5853  255 255 255
10.0259 87.5725 -51.1395  255 255 255
49.5569 56.1616 -13.4513  255 255 255
-1.96462 84.056 -44.6478  255 255 255
55.3966 29.0019 23.2657  255 255 255
60.8414 26.7716 25.8711  255 255 255
21.0204 89.4333 -56.3651  255 255 255
68.3009 23.5709 29.0095  255 255 255
50.2082 97.445 -71.9589  255 255 255
62.7147 24.3055 27.7009  255 255 255
-12.8012 79.7898 -39.9549  255 255 255
-63.5064 66.0102 -12.4474  255 255 255
-63.5162 66.0846 -12.539  255 255 255
-15.1165 79.0295 -38.8532  255 255 255
-15.0831 79.096 -39.1075  255 255 255
65.3727 100.093 -80.2442  255 255 255
62.097 98.9228 -78.6288  255 255 255
-11.2123 79.4671 -41.1842  255 255 255
66.5879 100.118 -81.6248  255 255 255
96.8915 108.174 -97.5012  255 255 255
46.8556 94.4268 -72.315  255 255 255
41.8797 92.8176 -69.8158  255 255 255
49.5728 33.1487 13.4459  255 255 255
55.672 45.9723 -5.72632  255 255 255
56.019 26.09 22.7528  255 255 255
56.019 26.09 22.7528  255 255 255
-59.336 65.807 -15.8995  255 255 255
43.5189 92.322 -71.0665  255 255 255
35.6434 90.4633 -67.7818  255 255 255
12.932 83.9583 -56.1438  255 255 255
56.0509 95.2727 -79.4106  255 255 255
41.5274 90.6355 -72.1644  255 255 255
-34.4242 70.9768 -30.9204  255 255 255
22.1885 85.7284 -62.2573  255 255 255
-24.804 72.8661 -36.7357  255 255 255
-4.64121 77.7228 -48.1251  255 255 255
21.9939 84.7518 -62.9486  255 255 255
55.0804 92.5824 -80.0594  255 255 255
55.1829 92.652 -80.1649  255 255 255
57.4925 93.0298 -81.3581  255 255 255
67.0788 95.9305 -86.9543  255 255 255
-59.0434 63.729 -18.5063  255 255 255
32.9861 86.1046 -69.9622  255 255 255
32.9298 86.0302 -69.8298  255 255 255
8.34746 79.8362 -56.5763  255 255 255
8.32639 79.823 -56.5236  255 255 255
-40.4184 67.6233 -29.3606  255 255 255
33.9031 86.1642 -70.5219  255 255 255
85.8531 98.1167 -97.019  255 255 255
49.6948 29.5676 10.6554  255 255 255
32.2755 85.4405 -69.9244  255 255 255
57.843 39.2253 -5.02099  255 255 255
12.6502 80.55 -59.13  255 255 255
49.9928 47.9249 -17.3236  255 255 255
-6.4021 75.7351 -49.0112  255 255 255
-62.1013 61.5517 -17.4631  255 255 255
-49.8889 64.4558 -24.5361  255 255 255
-41.4288 66.4788 -29.5152  255 255 255
42.1771 86.9559 -76.3404  255 255 255
33.6677 84.8002 -71.5121  255 255 255
-59.5839 62.0089 -19.1732  255 255 255
-42.2201 66.2299 -29.3054  255 255 255
44.3194 87.0512 -77.2452  255 255 255
21.6369 81.5355 -65.159  255 255 255
28.0359 83.1526 -68.7792  255 255 255
-20.9622 70.8782 -41.3386  255 255 255
52.2622 43.7501 -14.3272  255 255 255
55.787 88.8619 -83.3962  255 255 255
95.7442 98.3605 -104.38  255 255 255
-47.9985 63.9677 -26.7187  255 255 255
50.9942 46.0826 -19.0138  255 255 255
54.0183 41.2716 -12.4105  255 255 255
29.5206 82.5457 -71.0906  255 255 255
25.5184 81.323 -68.7034  255 255 255
54.4062 88.6092 -84.7995  255 255 255
56.9626 37.7862 -7.90205  255 255 255
68.0528 90.774 -90.9744  255 255 255
-46.3831 63.9213 -28.1254  255 255 255
46.6024 85.6832 -79.9816  255 255 255
-48.4432 62.9529 -27.0633  255 255 255
-48.6616 61.3609 -24.5793  255 255 255
-8.17308 72.2235 -50.276  255 255 255
-16.9025 69.848 -45.8541  255 255 255
-61.1433 59.5554 -20.2759  255 255 255
-44.5643 63.4258 -29.9955  255 255 255
-44.5555 63.4373 -30.0076  255 255 255
72.4711 90.4242 -95.1916  255 255 255
56.0038 86.4295 -86.2855  255 255 255
12.9698 76.4376 -62.8073  255 255 255
-35.699 65.3853 -35.4483  255 255 255
17.0801 77.4328 -65.5386  255 255 255
-67.0708 57.7439 -16.9347  255 255 255
14.3666 76.5429 -63.9428  255 255 255
-29.2597 66.4609 -39.281  255 255 255
44.6183 83.1395 -80.638  255 255 255
44.5827 83.0571 -80.5033  255 255 255
-49.993 61.4177 -27.4392  255 255 255
57.2993 85.6357 -88.0141  255 255 255
-65.7604 54.0382 -12.9285  255 255 255
58.6395 16.2515 20.6247  255 255 255
54.5018 85.092 -87.9042  255 255 255
53.8445 84.4262 -86.625  255 255 255
55.0135 19.1144 15.9579  255 255 255
-24.8054 65.9066 -42.4348  255 255 255
78.688 89.2789 -100.553  255 255 255
50.903 23.5185 8.9316  255 255 255
-24.0031 65.9805 -43.3961  255 255 255
-50.0208 60.4142 -28.5496  255 255 255
72.908 87.4222 -97.9235  255 255 255
-11.3716 68.6751 -51.1024  255 255 255
-11.3939 68.6519 -51.0192  255 255 255
56.1385 34.9532 -11.4736  255 255 255
-47.6372 60.5607 -29.8517  255 255 255
-47.641 60.5654 -29.8554  255 255 255
48.2965 25.6986 4.86217  255 255 255
48.2965 25.6986 4.86217  255 255 255
23.9826 76.1384 -70.9403  255 255 255
1.70136 71.3436 -58.8536  255 255 255
0.612462 71.0741 -58.4978  255 255 255
-1.5221 70.3753 -57.4069  255 255 255
-57.013 58.2035 -25.018  255 255 255
-2.65392 69.874 -56.5803  255 255 255
-2.60542 69.9457 -56.7692  255 255 255
-3.84819 69.5955 -56.089  255 255 255
-3.82848 69.637 -56.2034  255 255 255
-40.874 60.9373 -33.8025  255 255 255
-64.8215 56.17 -20.6685  255 255 255
-2.32903 69.0762 -57.4217  255 255 255
52.0856 80.8392 -88.2487  255 255 255
49.1223 79.8312 -86.6201  255 255 255
31.2765 75.2564 -77.8068  255 255 255
31.3097 75.3223 -77.8993  255 255 255
62.2542 81.6724 -95.3188  255 255 255
71.895 83.3757 -100.915  255 255 255
71.895 83.3757 -100.915  255 255 255
72.8743 83.2061 -101.312  255 255 255
26.9512 73.8683 -76.3689  255 255 255
71.2941 83.0841 -101.512  255 255 255
-31.9861 60.9775 -41.8632  255 255 255
-62.7597 54.4885 -23.6295  255 255 255
55.7167 14.7545 14.1752  255 255 255
51.0132 18.9167 6.79706  255 255 255
63.3221 79.2534 -97.9263  255 255 255
58.6223 77.9122 -96.3967  255 255 255
54.3185 76.2566 -93.6216  255 255 255
50.7661 75.3668 -92.438  255 255 255
56.2816 28.7849 -14.9969  255 255 255
57.946 9.33323 16.9496  255 255 255
14.261 66.7393 -72.5335  255 255 255
70.8349 77.4629 -105.594  255 255 255
54.9491 12.5424 11.366  255 255 255
50.7267 32.4767 -24.6666  255 255 255
-26.6242 57.8659 -49.0726  255 255 255
53.7088 28.9945 -20.6545  255 255 255
47.7699 18.6091 -1.52149  255 255 255
53.3402 29.3011 -22.288  255 255 255
-4.57403 60.7661 -62.9478  255 255 255
-9.13495 59.4251 -61.4147  255 255 255
9.16877 60.0937 -67.9441  255 255 255
-51.1045 51.6291 -35.3878  255 255 255
-6.51079 59.3524 -62.7892  255 255 255
54.4182 26.7644 -20.9783  255 255 255
9.67148 58.4382 -67.635  255 255 255
-3.95909 59.4172 -65.6493  255 255 255
8.45887 59.393 -70.0332  255 255 255
53.8985 25.4264 -22.857  255 255 255
57.5299 5.95737 12.4294  255 255 255
48.9268 14.2173 -1.17549  255 255 255
49.0225 14.0217 -1.87018  255 255 255
-25.0434 53.0593 -54.093  255 255 255
49.831 27.7289 -30.9084  255 255 255
55.0016 6.91461 7.14749  255 255 255
55.0623 6.94257 7.01094  255 255 255
55.5105 5.96081 8.16466  255 255 255
-35.297 50.406 -48.9263  255 255 255
-62.4575 46.0093 -31.841  255 255 255
52.4372 64.2979 -104.011  255 255 255
48.4519 12.5749 -3.87004  255 255 255
9.01904 56.9948 -77.1387  255 255 255
58.6263 2.04888 12.0529  255 255 255
62.5995 -2.47878 19.2283  255 255 255
-52.8564 46.1856 -38.9442  255 255 255
58.148 0.923047 12.0852  255 255 255
3.32412 54.2236 -75.2241  255 255 255
57.8661 1.38343 10.2885  255 255 255
58.6144 -0.525939 13.3427  255 255 255
-65.3566 43.3463 -31.8949  255 255 255
51.84 21.9905 -30.3419  255 255 255
-44.7713 46.4599 -46.019  255 255 255
-44.7614 46.4775 -46.0186  255 255 255
57.8205 0.841651 9.66855  255 255 255
47.4732 10.1575 -7.87993  255 255 255
-55.4967 43.5403 -39.1111  255 255 255
20.0171 54.4122 -87.4838  255 255 255
60.6558 -2.84894 13.3354  255 255 255
-16.1248 48.3813 -65.8132  255 255 255
66.7645 -9.69842 23.5918  255 255 255
60.5494 -4.85314 15.1876  255 255 255
58.2539 -1.75859 8.8218  255 255 255
-0.672464 -0.823223 25.4588  255 255 255
51.5773 3.46293 -1.92161  255 255 255
-18.2367 46.4229 -66.2481  255 255 255
62.4377 -6.61835 15.1864  255 255 255
-61.1802 40.4742 -37.8065  255 255 255
52.3219 2.18961 -0.300884  255 255 255
-10.6738 46.9154 -71.1963  255 255 255
-53.5446 40.6662 -43.9007  255 255 255
-26.5516 43.797 -61.7436  255 255 255
6.55581 -6.57791 31.7035  255 255 255
-60.9987 39.1444 -38.8524  255 255 255
-57.854 39.4831 -40.8221  255 255 255
-57.8431 39.4293 -40.7773  255 255 255
54.2844 -0.265618 0.668892  255 255 255
54.3487 -0.25289 0.574483  255 255 255
6.98479 -6.95431 31.7781  255 255 255
-16.4486 43.1727 -65.9053  255 255 255
58.9295 -5.10284 8.27108  255 255 255
-68.0123 38.0063 -34.5204  255 255 255
64.6618 -11.0168 18.095  255 255 255
4.41667 -8.08305 33.7799  255 255 255
-51.0043 38.2595 -44.8968  255 255 255
1.69885 45.4435 -82.0507  255 255 255
-12.8916 -0.992093 24.0839  255 255 255
-59.4137 37.6692 -41.3508  255 255 255
56.2799 -4.07432 2.95408  255 255 255
-9.56978 43.3547 -75.5843  255 255 255
-5.80134 -7.20065 33.3257  255 255 255
-67.4101 35.8684 -35.4476  255 255 255
-14.0099 -1.23077 23.039  255 255 255
-12.5085 42.5417 -73.9721  255 255 255
15.131 37.2503 -75.2926  255 255 255
-58.3712 36.7743 -43.3786  255 255 255
53.5397 -3.05406 -2.55161  255 255 255
-2.77741 -9.59738 35.0007  255 255 255
47.6852 2.22795 -12.4617  255 255 255
54.7005 -5.17159 1.26703  255 255 255
-12.3704 -5.3781 29.0773  255 255 255
61.8455 -10.9 10.7172  255 255 255
6.69119 -11.2688 33.7629  255 255 255
-9.0874 -8.04919 32.5511  255 255 255
-16.3609 39.7302 -72.996  255 255 255
-13.1092 -6.2732 29.2721  255 255 255
-11.7459 -7.42489 30.6885  255 255 255
4.1786 33.4598 -70.5285  255 255 255
-13.0009 38.2225 -74.9705  255 255 255
58.108 -9.64958 4.12748  255 255 255
58.108 -9.64958 4.12748  255 255 255
-0.0739438 -12.5672 35.8571  255 255 255
-18.7373 37.5289 -72.7449  255 255 255
-54.741 33.8616 -49.3891  255 255 255
12.1708 -13.3925 30.9809  255 255 255
-17.1005 -5.47056 24.5403  255 255 255
-59.4008 32.4141 -45.7462  255 255 255
-53.9579 32.9128 -50.0253  255 255 255
-53.9579 32.9128 -50.0253  255 255 255
-51.5059 32.652 -51.7897  255 255 255
-25.8158 35.2255 -70.159  255 255 255
-56.8038 32.0754 -48.1409  255 255 255
-26.7175 34.8319 -69.3608  255 255 255
-1.7337 27.2275 -62.9934  255 255 255
6.56133 -14.9816 34.2331  255 255 255
-5.4401 -13.2013 35.4053  255 255 255
59.1261 -12.5452 3.45296  255 255 255
63.4953 -17.0457 10.1544  255 255 255
-0.179083 25.5631 -63.7956  255 255 255
60.688 -14.7785 5.36091  255 255 255
-10.4745 -12.1868 33.3612  255 255 255
-2.09099 -15.0782 36.1482  255 255 255
58.9962 -13.526 2.50535  255 255 255
-31.4391 32.6598 -67.2378  255 255 255
65.242 -17.6606 8.45121  255 255 255
-12.136 -12.3229 32.4609  255 255 255
-18.6551 -7.56901 22.6603  255 255 255
60.4508 -16.0369 3.68541  255 255 255
-10.1393 -14.0246 33.832  255 255 255
10.7966 -17.3311 31.2951  255 255 255
60.4083 -16.8353 3.52462  255 255 255
62.8868 -18.8334 7.25887  255 255 255
62.9003 -18.8379 7.2611  255 255 255
-39.0554 29.1594 -63.0466  255 255 255
63.8843 -20.5976 7.92937  255 255 255
-15.0991 -12.8828 29.7082  255 255 255
56.9859 -15.3902 -3.96264  255 255 255
-17.3392 -12.0638 27.9514  255 255 255
-0.217366 -18.6159 35.8802  255 255 255
-21.0561 -7.76096 18.2772  255 255 255
-8.40585 -17.0273 34.7964  255 255 255
-26.5985 -4.00805 8.99823  255 255 255
63.2324 -21.8868 5.72647  255 255 255
-22.7793 -9.08476 20.0106  255 255 255
-22.6028 -9.35603 20.0111  255 255 255
2.90547 -20.3608 35.1122  255 255 255
63.512 -22.6069 5.52105  255 255 255
-14.1006 -15.6372 31.5277  255 255 255
-22.3745 -10.3111 21.0762  255 255 255
-13.4837 -16.2533 32.1474  255 255 255
1.32058 -20.7385 35.5917  255 255 255
4.99879 -21.7547 34.2685  255 255 255
-21.0508 -12.3034 23.4195  255 255 255
63.5431 -24.2911 5.41482  255 255 255
62.661 -23.6951 3.09653  255 255 255
62.6955 -23.6853 3.01047  255 255 255
3.17982 -22.0287 34.6564  255 255 255
8.19878 -23.1681 33.7412  255 255 255
68.9143 -26.7651 4.75214  255 255 255
-29.1259 -10.1331 16.4598  255 255 255
-23.4687 -13.8478 23.5672  255 255 255
65.4759 -28.2652 7.40828  255 255 255
-25.8193 6.85535 -39.313  255 255 255
-18.8368 -17.7152 29.5747  255 255 255
55.6897 -21.0324 -10.6158  255 255 255
-4.74314 -22.7063 34.689  255 255 255
68.8892 -28.8558 1.50779  255 255 255
-16.0917 -20.1414 32.1275  255 255 255
-21.6947 -17.6033 26.9498  255 255 255
65.6203 -30.6674 5.06378  255 255 255
72.7412 -30.394 -2.4325  255 255 255
-27.8093 -16.0398 23.672  255 255 255
-47.9022 7.51425 -37.808  255 255 255
59.1703 -26.9553 -7.03895  255 255 255
10.0587 -28.9718 35.3594  255 255 255
10.4978 -29.1615 35.5592  255 255 255
-27.1035 -16.8823 24.1507  255 255 255
-27.7971 -17.1733 25.0324  255 255 255
-27.5432 -17.4526 25.3653  255 255 255
10.9337 -29.8009 36.104  255 255 255
-27.7526 -17.6453 25.2247  255 255 255
-18.3487 -21.6864 31.1269  255 255 255
11.3119 -30.0557 35.4358  255 255 255
65.5776 -34.1164 3.34611  255 255 255
66.2494 -35.5754 4.35881  255 255 255
67.6611 -37.0381 6.69358  255 255 255
-35.1078 -3.13791 -26.4095  255 255 255
-35.1323 -3.11005 -26.5164  255 255 255
-21.7921 -23.2545 31.5743  255 255 255
-25.2686 -21.6167 28.7111  255 255 255
-25.2332 -21.8823 28.2103  255 255 255
-4.7143 -29.9669 37.9302  255 255 255
10.1718 -32.6772 34.5004  255 255 255
11.3446 -32.7106 33.4179  255 255 255
11.3446 -32.7106 33.4179  255 255 255
-23.9942 -23.6729 32.0249  255 255 255
-5.81203 -30.8354 38.892  255 255 255
-19.3896 -26.1727 33.8436  255 255 255
-3.9127 -31.5419 39.4013  255 255 255
12.7161 -33.5856 31.4846  255 255 255
-18.1832 -26.8705 34.4393  255 255 255
-12.102 -29.735 37.2032  255 255 255
-43.5959 -6.46012 -22.4767  255 255 255
-26.6136 -23.1808 23.8939  255 255 255
-12.7623 -30.1849 36.4598  255 255 255
-1.35528 -33.3664 37.179  255 255 255
-1.36179 -33.3697 37.2042  255 255 255
-5.1223 -32.8746 38.6297  255 255 255
-2.19724 -33.966 37.8721  255 255 255
-37.9672 -11.5751 -16.3091  255 255 255
-1.63879 -34.299 36.4964  255 255 255
-56.7513 -7.7286 -19.7288  255 255 255
-20.8248 -28.4081 30.4039  255 255 255
-5.489 -34.3102 37.8346  255 255 255
-10.6426 -32.4307 35.5641  255 255 255
-18.3268 -29.6702 32.2319  255 255 255
10.5005 -36.821 30.0916  255 255 255
-18.4865 -29.7106 31.826  255 255 255
-5.34677 -34.4337 36.7752  255 255 255
-6.17376 -34.1765 35.8763  255 255 255
-19.4617 -29.6761 30.8626  255 255 255
9.86314 -37.2292 30.3209  255 255 255
-10.1392 -33.1761 35.0593  255 255 255
-19.9709 -29.6354 30.1906  255 255 255
-47.5647 -12.226 -16.3868  255 255 255
46.1184 -43.4134 12.4201  255 255 255
-41.7053 -15.3853 -12.2517  255 255 255
-46.6885 -14.022 -13.4524  255 255 255
-46.6885 -14.022 -13.4524  255 255 255
15.4103 -38.9357 25.6313  255 255 255
15.2491 -38.7978 25.2969  255 255 255
-5.60779 -35.7522 35.8921  255 255 255
9.23204 -38.4732 30.0311  255 255 255
-9.90421 -34.5427 33.8637  255 255 255
-43.3971 -16.6396 -10.5144  255 255 255
5.56851 -38.9837 32.8351  255 255 255
-13.1053 -34.1317 32.5395  255 255 255
-1.46335 -37.8659 32.5997  255 255 255
-41.6711 -19.0721 -7.84067  255 255 255
-20.1902 -32.0711 28.049  255 255 255
-45.945 -18.2704 -8.75808  255 255 255
-9.33258 -36.5806 32.4806  255 255 255
