ply
format ascii 1.0
element vertex 1251
property float x
property float y
property float z
property uchar red
property uchar green
property uchar blue
end_header
-26.3245 -51.5089 42.7673  255 255 255
24.6915 -47.3135 33.6689  255 255 255
8.21934 -25.2147 41.0641  255 255 255
27.463 -39.0966 23.556  255 255 255
-12.6658 -4.78538 37.1972  255 255 255
36.0376 50.2039 -71.9495  255 255 255
-7.48114 -30.3497 47.4706  255 255 255
-8.25234 12.5881 -29.7045  255 255 255
12.7693 17.1096 -37.7584  255 255 255
20.8973 9.67866 -29.2748  255 255 255
-14.1972 -22.9627 43.9674  255 255 255
-88.3678 -28.5165 23.271  255 255 255
1.00318 -43.5279 40.9186  255 255 255
-40.6501 41.3808 -18.2204  255 255 255
20.7484 11.0603 -30.8401  255 255 255
-42.1239 -26.1006 15.5914  255 255 255
29.1886 -40.4954 24.9339  255 255 255
-69.5116 1.44499 -13.4331  255 255 255
7.57947 -15.3077 39.8465  255 255 255
-68.6267 3.69366 -15.9323  255 255 255
-34.1126 9.02693 -24.1239  255 255 255
-66.6026 -53.0978 50.3876  255 255 255
-41.9893 7.26002 -21.8446  255 255 255
3.30856 -31.5526 45.4721  255 255 255
7.16033 -30.7015 43.3267  255 255 255
-70.1016 -48.3894 44.8051  255 255 255
-74.6135 -46.2886 43.439  255 255 255
-39.7864 10.7812 -26.2524  255 255 255
9.22947 23.0635 -43.4581  255 255 255
-69.006 -47.5078 43.5256  255 255 255
-61.5154 -50.0013 45.1325  255 255 255
-0.762724 -20.491 44.9994  255 255 255
-26.4513 18.0696 -34.3214  255 255 255
-8.77412 -54.2654 43.7342  255 255 255
-34.5481 -46.3438 37.6481  255 255 255
-9.80549 12.6353 -29.7528  255 255 255
-12.4305 -27.9229 45.1669  255 255 255
-67.9834 -48.6388 44.6133  255 255 255
-34.407 -46.7094 38.0402  255 255 255
-21.9375 -54.6143 45.4818  255 255 255
-68.1355 -52.902 48.1313  255 255 255
-68.6267 3.69366 -15.9323  255 255 255
-34.2854 -48.1911 39.6106  255 255 255
-66.899 -52.5234 49.829  255 255 255
-25.374 19.794 -37.4078  255 255 255
-41.0974 3.49503 -17.3125  255 255 255
15.3289 -11.0046 22.8633  255 255 255
-68.7049 -51.6134 48.9264  255 255 255
-71.0115 -13.9404 3.7664  255 255 255
17.554 -13.6804 25.4596  255 255 255
-53.3813 -34.6226 25.9288  255 255 255
-50.6222 -36.7518 27.9477  255 255 255
-0.120264 -43.629 37.7398  255 255 255
15.5947 -17.1798 30.0008  255 255 255
-22.563 -51.388 42.2436  255 255 255
-27.6906 -51.9552 43.2838  255 255 255
-33.3528 4.87347 -19.4176  255 255 255
38.936 -21.0002 4.81233  255 255 255
-44.4305 6.48674 -20.8519  255 255 255
36.2706 51.4281 -69.8084  255 255 255
24.5489 50.3777 -64.4117  255 255 255
-35.0941 -54.2955 46.2451  255 255 255
-24.0223 5.70127 -20.9975  255 255 255
-72.0463 -15.2965 5.56551  255 255 255
-28.6768 -50.7565 41.9567  255 255 255
-63.2482 10.7906 -23.6388  255 255 255
-75.1846 4.17683 -15.9116  255 255 255
37.5204 -34.9251 17.9807  255 255 255
-28.0469 -53.7049 45.1512  255 255 255
-30.7568 13.4076 -29.3754  255 255 255
-65.8186 -20.5519 10.9689  255 255 255
-67.0185 -52.9569 50.5037  255 255 255
-66.5326 -53.4978 48.7818  255 255 255
34.0804 -43.0368 28.0783  255 255 255
39.5668 -42.3201 26.2347  255 255 255
-57.1783 -49.4732 42.5412  255 255 255
-20.168 -19.4342 40.3899  255 255 255
-66.4563 -48.0831 43.8756  255 255 255
2.43482 -4.7583 36.5117  255 255 255
44.3615 -43.422 27.1336  255 255 255
5.27352 -23.2156 41.8276  255 255 255
13.1212 24.4042 -45.4034  255 255 255
28.4159 -33.3135 17.2615  255 255 255
34.274 -40.0649 24.1882  255 255 255
-3.42801 41.1968 -48.4948  255 255 255
-39.8125 7.72373 -22.057  255 255 255
-30.8439 -46.5051 37.3496  255 255 255
12.4482 -23.25 37.2416  255 255 255
5.18468 -29.0359 44.7474  255 255 255
1.18161 -29.1599 45.0465  255 255 255
-28.2123 15.2204 -31.3585  255 255 255
-68.1537 -46.308 41.9552  255 255 255
0.132309 -43.5377 41.2012  255 255 255
-68.9652 -51.4371 46.8425  255 255 255
-21.5661 -53.8355 44.4639  255 255 255
25.3963 -41.7439 26.792  255 255 255
-50.2296 -36.2216 27.7562  255 255 255
-25.0488 7.28243 -22.6551  255 255 255
36.7208 29.7662 -53.0782  255 255 255
17.9416 22.4086 -43.6332  255 255 255
-20.4988 -52.1399 42.6104  255 255 255
9.84089 -21.6852 39.4207  255 255 255
22.2239 -47.5233 33.4801  255 255 255
13.297 -29.4948 36.792  255 255 255
27.6892 -34.3071 17.9073  255 255 255
3.19534 -5.50214 37.0064  255 255 255
42.2605 -44.5028 29.3912  255 255 255
35.1579 11.7904 -18.2258  255 255 255
35.7517 11.4974 -18.7338  255 255 255
-27.294 -53.5614 44.4287  255 255 255
35.7517 11.4974 -18.7338  255 255 255
-67.6829 2.38155 -13.9658  255 255 255
37.1232 23.7976 -11.0057  255 255 255
-7.81874 -53.4854 42.8105  255 255 255
28.7163 25.3192 -48.028  255 255 255
-38.572 4.99286 -19.671  255 255 255
43.6697 -26.3373 7.45808  255 255 255
-25.2405 -52.8475 43.9761  255 255 255
10.0513 -36.3031 35.6019  255 255 255
-31.4488 -45.258 36.076  255 255 255
-41.7614 -31.7738 21.3348  255 255 255
-25.488 -14.7815 32.0493  255 255 255
-29.1797 -41.9769 35.0229  255 255 255
42.177 -18.2688 9.22277  255 255 255
13.9368 -20.0715 33.5837  255 255 255
-20.3236 -11.6007 35.431  255 255 255
-29.4407 -28.0972 28.3369  255 255 255
9.37619 -17.6042 37.8344  255 255 255
-6.55533 -19.5753 45.7751  255 255 255
-25.3308 -15.0254 31.966  255 255 255
-64.3509 -39.9261 33.6341  255 255 255
-6.08522 -24.5569 44.8554  255 255 255
-20.2426 -33.7807 39.7638  255 255 255
-31.648 3.65986 -18.1282  255 255 255
11.8892 46.3793 -55.1286  255 255 255
-29.5313 20.1412 -37.0746  255 255 255
20.6013 30.049 -52.965  255 255 255
34.9718 25.7897 -49.5222  255 255 255
0.210086 -35.483 43.665  255 255 255
-10.2461 -43.5056 42.4461  255 255 255
-32.4191 -51.7472 43.5219  255 255 255
-70.6201 8.07022 -20.4133  255 255 255
-18.3041 -25.2808 42.9904  255 255 255
1.38739 -28.002 44.4504  255 255 255
-30.4639 3.59218 -18.2879  255 255 255
12.7317 -12.7395 29.17  255 255 255
17.7196 25.5414 -46.6487  255 255 255
17.2372 24.6549 -48.2517  255 255 255
7.32732 10.2169 -28.6837  255 255 255
-39.9231 -11.4418 -0.762073  255 255 255
38.8906 28.1165 -52.1383  255 255 255
5.70637 46.1815 -50.8075  255 255 255
26.3626 -42.0799 27.4727  255 255 255
-3.07914 -55.1741 44.792  255 255 255
34.2953 31.8568 -56.0605  255 255 255
8.23345 33.3654 -54.624  255 255 255
7.90171 24.4815 -44.8915  255 255 255
21.8409 12.611 -32.6084  255 255 255
-40.8764 -11.5324 -0.65849  255 255 255
30.7722 -33.9979 18.201  255 255 255
-40.9447 -11.8412 -0.347259  255 255 255
35.2779 20.8128 -42.9322  255 255 255
-25.1243 5.67089 -20.9342  255 255 255
26.8778 -44.3959 29.5327  255 255 255
25.8221 36.1459 -60.536  255 255 255
-15.6498 -26.539 43.8159  255 255 255
29.4426 -45.5625 30.2018  255 255 255
19.6055 8.83262 -29.0254  255 255 255
15.8854 23.0149 -43.5443  255 255 255
-24.7927 3.92143 -18.9705  255 255 255
-71.5026 -14.1092 5.32365  255 255 255
28.2221 -39.7446 24.0461  255 255 255
36.9611 16.5873 -14.6204  255 255 255
6.32107 29.3492 -50.5129  255 255 255
-5.41603 -53.6993 43.0345  255 255 255
-40.2861 -34.8937 25.0413  255 255 255
-18.3663 -9.70852 36.5269  255 255 255
-8.30133 -40.1932 40.5717  255 255 255
-32.9965 15.2013 -30.8924  255 255 255
-26.1005 -15.0629 32.0368  255 255 255
29.4084 -45.9748 31.6338  255 255 255
-24.5694 -35.7857 33.0158  255 255 255
34.894 10.7619 -21.4322  255 255 255
34.3639 6.85977 -24.2846  255 255 255
7.47843 -28.3547 43.4686  255 255 255
-33.7238 -51.2524 43.0308  255 255 255
-24.5425 -53.1267 44.1962  255 255 255
35.5697 9.82172 -19.9952  255 255 255
-24.8633 -52.986 44.3117  255 255 255
36.6353 7.93168 -18.9049  255 255 255
33.6304 5.36145 -23.131  255 255 255
38.0805 31.8688 -55.7439  255 255 255
45.1551 -40.0226 23.9608  255 255 255
15.4601 21.6039 -42.3558  255 255 255
-31.3363 -55.0508 46.8738  255 255 255
-86.7047 -31.019 25.8413  255 255 255
-8.21447 32.4787 -51.7221  255 255 255
-62.9509 -1.86528 -9.84418  255 255 255
14.8443 47.2057 -58.0174  255 255 255
15.8684 3.53505 -22.1887  255 255 255
38.6855 -12.9579 4.86515  255 255 255
2.77041 -24.432 43.3645  255 255 255
30.7494 -37.1974 21.9629  255 255 255
11.3083 -20.0903 37.5727  255 255 255
36.2921 39.4921 -64.9444  255 255 255
-69.4103 -0.800469 -10.8433  255 255 255
-60.0516 -10.1288 -0.587068  255 255 255
25.4317 -45.0198 30.2529  255 255 255
21.288 54.8845 -56.1486  255 255 255
-64.0416 2.52425 -14.669  255 255 255
40.7485 32.6205 -57.7866  255 255 255
-3.32993 -55.2363 44.3765  255 255 255
30.7851 -40.2844 24.2008  255 255 255
-42.8596 -12.6058 1.00347  255 255 255
38.8181 49.1996 -74.8849  255 255 255
22.7048 -47.9925 34.233  255 255 255
-6.88326 45.1377 -45.0145  255 255 255
21.89 25.1144 -46.5585  255 255 255
39.7904 52.1457 -73.0289  255 255 255
-44.8697 -9.99622 -2.13369  255 255 255
-0.582694 32.1333 -52.6363  255 255 255
24.8926 -38.2529 22.8843  255 255 255
36.9667 -18.2966 -0.242921  255 255 255
-37.5025 4.7032 -19.1781  255 255 255
-20.1639 -50.974 41.4457  255 255 255
-35.2419 -54.8522 47.4092  255 255 255
43.1615 -42.0489 25.4065  255 255 255
-37.2372 -48.8793 40.4564  255 255 255
14.7246 -37.9269 32.9658  255 255 255
-22.3599 11.8649 -27.8729  255 255 255
25.1834 -46.2712 32.0946  255 255 255
-36.1581 4.60115 -19.3253  255 255 255
31.2451 35.2856 -60.3468  255 255 255
-23.2602 -51.5187 42.5436  255 255 255
10.1719 6.92583 -25.2713  255 255 255
20.0058 13.6537 -34.0482  255 255 255
-41.2174 6.45179 -20.5209  255 255 255
24.0759 -45.5888 31.2153  255 255 255
-21.973 4.36529 -19.6679  255 255 255
-48.158 -4.78696 -7.72326  255 255 255
15.2318 19.3228 -39.8166  255 255 255
18.3334 7.75833 -27.1567  255 255 255
-8.02119 42.7355 -44.3423  255 255 255
-34.9929 -47.7317 39.5959  255 255 255
42.0669 -40.419 24.4819  255 255 255
-69.7984 -49.2323 46.1545  255 255 255
39.6864 -39.595 23.2635  255 255 255
-29.2374 3.71062 -18.5794  255 255 255
40.0825 -19.2262 3.33465  255 255 255
-25.3553 -49.5871 40.7031  255 255 255
40.5161 -40.0928 23.7598  255 255 255
-35.0865 0.0127035 -13.9694  255 255 255
30.0222 -1.62079 -15.819  255 255 255
-35.8915 -49.7963 41.5492  255 255 255
-61.218 -51.7629 47.6541  255 255 255
31.108 -44.3584 29.3804  255 255 255
39.917 50.3431 -74.5486  255 255 255
21.3366 -48.9666 35.3124  255 255 255
21.3182 14.9788 -35.7453  255 255 255
-59.2046 -5.80766 -5.44241  255 255 255
-25.0488 7.28243 -22.6551  255 255 255
-56.8405 -6.71006 -5.41928  255 255 255
26.9354 36.5801 -60.9053  255 255 255
37.7398 30.1236 -54.2359  255 255 255
-26.563 -12.7424 29.6934  255 255 255
-22.2805 -11.1309 31.2396  255 255 255
12.1309 49.6765 -51.5021  255 255 255
-58.0135 -12.2638 1.28151  255 255 255
-48.4856 3.01971 -15.9727  255 255 255
14.3119 22.674 -43.4148  255 255 255
-69.4502 -2.53035 -8.77104  255 255 255
-111.561 40.7411 -53.7514  255 255 255
28.5804 -38.6265 23.0085  255 255 255
-47.9884 -10.6786 -0.0518183  255 255 255
-56.3505 -10.1058 -1.39421  255 255 255
21.7383 13.3985 -33.9399  255 255 255
-24.8204 -51.2252 42.4268  255 255 255
35.3944 33.8342 -58.6063  255 255 255
-39.707 5.87909 -20.0352  255 255 255
-41.8622 4.26613 -18.4084  255 255 255
38.7711 35.0485 -60.8884  255 255 255
-56.7309 -48.4876 43.0099  255 255 255
-29.4491 -50.0506 41.4331  255 255 255
-45.9911 -9.659 -2.3133  255 255 255
-39.2053 4.21034 -18.2752  255 255 255
-37.6127 5.30282 -19.7211  255 255 255
31.1091 5.01844 -24.9125  255 255 255
13.8394 39.7155 -60.9043  255 255 255
36.1641 -43.1004 27.4884  255 255 255
36.9337 45.818 -71.5792  255 255 255
-58.4103 -26.7818 17.0362  255 255 255
-49.5181 -38.4496 29.8875  255 255 255
45.1551 -40.0226 23.9608  255 255 255
-51.563 -21.3519 11.1414  255 255 255
-65.072 -40.9504 34.8939  255 255 255
-42 -32.5651 22.9997  255 255 255
40.2203 -42.5034 26.6337  255 255 255
8.21008 22.4912 -42.8717  255 255 255
13.1755 -16.4135 33.1732  255 255 255
-68.7705 -50.7438 47.8305  255 255 255
-6.05904 38.4247 -50.9322  255 255 255
41.4787 -44.4621 28.9433  255 255 255
25.0059 -42.53 27.6512  255 255 255
29.5206 -33.539 17.109  255 255 255
11.675 17.3339 -37.1471  255 255 255
-50.6291 -30.4877 21.0662  255 255 255
-5.96267 15.1358 -33.0171  255 255 255
-43.6115 -11.8649 -0.427851  255 255 255
34.5192 -34.7803 18.118  255 255 255
12.2818 35.6131 -58.1322  255 255 255
-64.3081 -48.8704 44.4375  255 255 255
-41.9881 -33.6695 24.2823  255 255 255
-55.6162 -29.2635 19.7966  255 255 255
-4.31284 -32.1996 47.0278  255 255 255
-50.9573 -25.7526 15.3302  255 255 255
27.6199 -47.528 33.6715  255 255 255
34.3236 9.49538 -22.3721  255 255 255
40.5168 -41.295 24.9174  255 255 255
-66.8062 -47.922 43.6346  255 255 255
16.4486 31.4809 -53.1925  255 255 255
-66.157 15.2616 -24.5258  255 255 255
37.2691 -41.773 25.5258  255 255 255
36.978 49.0152 -73.6364  255 255 255
-43.2833 -30.5099 20.7425  255 255 255
22.933 26.9447 -49.7315  255 255 255
25.4317 -45.0198 30.2529  255 255 255
-3.37564 -52.6236 41.3884  255 255 255
-48.0226 -12.1255 0.551095  255 255 255
31.763 -44.1909 29.0746  255 255 255
17.765 21.4176 -42.5789  255 255 255
4.41247 47.9877 -47.5634  255 255 255
31.9852 -31.2578 13.8553  255 255 255
-3.05287 36.7544 -52.7802  255 255 255
30.7434 -1.65579 -16.5867  255 255 255
26.6268 -47.7265 33.4176  255 255 255
-49.7817 -37.8819 29.293  255 255 255
-49.0524 -37.5182 28.9274  255 255 255
-40.7763 -32.4781 22.6001  255 255 255
18.7245 9.22237 -28.4821  255 255 255
-76.4128 -11.3351 1.55129  255 255 255
40.1859 -39.415 23.2972  255 255 255
29.7007 -45.9471 30.9436  255 255 255
42.032 49.0874 -75.5885  255 255 255
36.0299 35.0809 -59.9856  255 255 255
17.7235 7.85227 -27.4652  255 255 255
-0.149799 46.7411 -46.7725  255 255 255
-1.53033 44.1165 -47.9856  255 255 255
44.3615 -40.1504 23.989  255 255 255
-48.4623 -11.2549 -0.453362  255 255 255
-9.98585 10.038 -26.8883  255 255 255
-65.6845 -4.39101 -6.94868  255 255 255
-44.7295 -47.6565 40.1894  255 255 255
27.9942 -43.3534 28.6757  255 255 255
5.82366 -17.4812 41.8153  255 255 255
9.28059 17.0785 -37.0775  255 255 255
-14.5339 -7.06462 38.3416  255 255 255
-42.8677 -25.9152 15.5141  255 255 255
39.4371 -42.0334 25.8003  255 255 255
43.305 -42.7319 27.0671  255 255 255
31.199 -42.8007 27.7996  255 255 255
-34.5935 -49.3574 40.8684  255 255 255
34.1072 -32.6823 15.9487  255 255 255
-30.0796 7.33551 -22.5057  255 255 255
-72.0055 -40.0092 35.3571  255 255 255
-67.2411 -47.1571 43.0375  255 255 255
36.2302 9.19532 -18.8556  255 255 255
25.366 -43.2549 28.2879  255 255 255
27.1248 -44.7675 29.8175  255 255 255
27.5622 -47.16 32.7262  255 255 255
-30.372 -47.551 38.4763  255 255 255
-29.2759 -40.6322 33.7341  255 255 255
31.267 -39.9783 24.1923  255 255 255
34.894 10.7619 -21.4322  255 255 255
45.1515 -40.644 24.2478  255 255 255
29.2351 -26.0787 8.985  255 255 255
-66.1482 -48.377 44.2033  255 255 255
-7.60377 43.5045 -43.5714  255 255 255
29.2186 -38.4324 22.7482  255 255 255
-34.7337 -47.3997 38.7556  255 255 255
32.9542 13.0464 -25.2512  255 255 255
27.3812 -45.0507 29.9347  255 255 255
30.7343 -38.7866 23.0046  255 255 255
-1.66592 44.6866 -46.6909  255 255 255
21.0609 13.5542 -33.7475  255 255 255
-22.3199 19.0679 -36.9596  255 255 255
-111.561 40.7411 -53.7514  255 255 255
-48.2014 -0.212106 -12.7097  255 255 255
-69.064 -47.7737 43.734  255 255 255
-40.4767 4.85293 -18.8701  255 255 255
-77.901 -9.51479 -0.478588  255 255 255
-21.1911 -14.7534 35.4338  255 255 255
-44.0768 22.6939 -34.2024  255 255 255
35.4335 -40.1653 24.447  255 255 255
20.0837 11.8929 -32.358  255 255 255
-37.5116 6.53728 -21.0247  255 255 255
33.1462 16.9535 -22.7329  255 255 255
-25.883 -13.2192 29.7681  255 255 255
-45.7985 25.7209 -30.2797  255 255 255
29.8362 -27.8281 10.9765  255 255 255
29.3947 -45.923 30.9999  255 255 255
-2.19655 44.8994 -47.1058  255 255 255
-49.0524 -37.5182 28.9274  255 255 255
21.0994 52.853 -56.8721  255 255 255
-26.4513 18.0696 -34.3214  255 255 255
17.554 -13.6804 25.4596  255 255 255
6.63091 7.70358 -25.8393  255 255 255
35.2799 9.23613 -20.8431  255 255 255
34.073 -40.8528 25.0481  255 255 255
-10.3478 33.8232 -52.4479  255 255 255
11.7045 36.8124 -59.0107  255 255 255
-42.0483 -23.7661 13.2438  255 255 255
6.34719 33.1689 -54.3334  255 255 255
30.6085 45.4348 -70.2991  255 255 255
11.9338 16.6087 -36.4532  255 255 255
-42.6328 -32.0553 21.9701  255 255 255
-69.9735 -49.9293 47.1382  255 255 255
26.6268 -47.7265 33.4176  255 255 255
37.8382 -35.4996 18.7636  255 255 255
35.0813 6.31318 -22.7039  255 255 255
-29.9119 1.9095 -16.6104  255 255 255
14.5359 32.9992 -55.218  255 255 255
36.9205 -20.138 1.53406  255 255 255
9.41965 -52.2013 39.8147  255 255 255
35.5801 -39.4873 23.4895  255 255 255
9.52005 7.54872 -26.137  255 255 255
41.0952 -39.8235 23.4957  255 255 255
-46.96 -5.33459 -6.98491  255 255 255
-32.5441 -46.1726 37.3067  255 255 255
20.4801 24.5724 -46.2175  255 255 255
-57.0455 -48.3588 42.8024  255 255 255
40.9362 -20.4917 4.38134  255 255 255
10.5124 49.9177 -50.5634  255 255 255
-64.5461 -46.7725 41.8437  255 255 255
-30.5319 -47.6016 38.6763  255 255 255
12.2287 12.6304 -32.2777  255 255 255
40.8155 -44.0766 28.6173  255 255 255
15.0853 2.64968 -20.6553  255 255 255
14.4047 22.2856 -43.5803  255 255 255
29.2136 -40.6942 25.1571  255 255 255
7.60084 -15.0394 39.8893  255 255 255
17.6663 4.36106 -22.5678  255 255 255
-45.1154 -47.7135 40.1464  255 255 255
-56.5147 -12.9681 2.47647  255 255 255
42.6837 -19.402 9.61448  255 255 255
26.171 37.7883 -61.9123  255 255 255
24.473 38.6539 -62.5964  255 255 255
8.69596 -19.5383 38.9655  255 255 255
33.5234 -37.7712 21.6463  255 255 255
25.0099 -45.4272 30.7203  255 255 255
16.8855 22.9636 -44.0012  255 255 255
35.5154 -42.5467 26.1798  255 255 255
-33.2252 7.94366 -23.0291  255 255 255
15.0111 -35.2787 30.0228  255 255 255
-25.3741 -16.3902 33.6022  255 255 255
0.888568 -53.5 41.605  255 255 255
-27.3006 8.53653 -24.0355  255 255 255
34.584 -37.5002 21.0154  255 255 255
29.7821 -3.52674 -15.7899  255 255 255
-46.8211 -28.9106 19.06  255 255 255
39.6864 -39.595 23.2635  255 255 255
-24.9685 6.10218 -21.3929  255 255 255
-60.1758 -52.3886 48.1928  255 255 255
36.0824 8.17062 -20.7386  255 255 255
-29.6791 2.97193 -17.9245  255 255 255
37.2504 6.54342 -18.2581  255 255 255
11.3232 15.8677 -36.0565  255 255 255
41.2939 -27.7648 10.2301  255 255 255
-16.2038 -26.0989 43.4167  255 255 255
-3.35194 -54.9863 44.3677  255 255 255
-26.4435 -49.5224 40.5682  255 255 255
1.69777 45.3154 -49.0019  255 255 255
23.6603 29.1629 -51.6398  255 255 255
28.6074 -36.9716 21.055  255 255 255
8.46679 5.57109 -23.5048  255 255 255
-2.57532 47.2273 -44.0451  255 255 255
31.1965 -44.9109 29.6584  255 255 255
28.389 -38.0767 22.2821  255 255 255
-64.9816 -4.46827 -7.64312  255 255 255
-21.1574 -31.4196 39.6225  255 255 255
-9.58127 12.3514 -29.8916  255 255 255
8.93401 37.8803 -59.6494  255 255 255
-21.6646 5.73859 -21.1136  255 255 255
-8.95054 11.8657 -29.3732  255 255 255
13.6201 25.3721 -46.6895  255 255 255
4.83227 27.0465 -47.4227  255 255 255
-6.11968 -51.3336 41.8131  255 255 255
7.63977 29.7422 -50.9726  255 255 255
0.97127 -29.6081 45.4545  255 255 255
-49.6788 -11.0476 -0.781374  255 255 255
-50.9432 -23.8221 13.6534  255 255 255
-65.7303 15.0171 -24.4604  255 255 255
35.5563 47.2189 -73.1057  255 255 255
14.2032 15.6293 -36.4432  255 255 255
40.9733 -41.0589 24.9904  255 255 255
37.1455 34.0234 -59.3101  255 255 255
34.9068 6.85952 -22.8597  255 255 255
21.5295 -47.7132 33.7604  255 255 255
29.9038 -43.3266 28.1581  255 255 255
24.9595 -46.3536 31.8551  255 255 255
8.93728 16.473 -36.3654  255 255 255
-33.6836 -2.01702 -12.0284  255 255 255
34.7643 4.85166 -23.896  255 255 255
-72.7369 -46.6055 43.2682  255 255 255
28.7112 -41.7209 26.508  255 255 255
-30.8303 7.19591 -22.8164  255 255 255
32.4342 -44.0399 28.6498  255 255 255
-67.1466 -3.15168 -8.16724  255 255 255
31.3632 -37.9852 22.456  255 255 255
31.1259 -42.6366 27.1031  255 255 255
35.7574 -19.3107 0.372423  255 255 255
-67.0933 -51.5891 48.0429  255 255 255
34.6079 6.77164 -23.6397  255 255 255
26.0195 -44.1416 29.4318  255 255 255
35.4891 6.28491 -21.3005  255 255 255
-43.8321 -31.2132 21.2973  255 255 255
36.2302 9.19532 -18.8556  255 255 255
37.0731 7.16474 -18.4953  255 255 255
14.911 -18.2518 31.8514  255 255 255
29.5186 -44.8606 30.2527  255 255 255
-72.0055 -40.0092 35.3571  255 255 255
18.8373 -18.5198 30.8649  255 255 255
27.8562 -38.7285 23.2041  255 255 255
21.9366 -48.3529 34.3631  255 255 255
32.1699 -43.7057 28.7932  255 255 255
28.0947 -29.2942 12.4683  255 255 255
-11.6875 8.7227 -25.0842  255 255 255
-42.6328 -32.0553 21.9701  255 255 255
-71.8094 -41.1765 36.2987  255 255 255
-4.54479 44.5792 -42.9329  255 255 255
-4.04176 43.9549 -42.1871  255 255 255
29.1055 57.8455 -60.1603  255 255 255
29.5669 -41.8668 26.4864  255 255 255
-29.8166 -50.961 42.216  255 255 255
-44.8407 -11.6791 -0.171023  255 255 255
-25.969 -51.2694 42.3542  255 255 255
37.8199 -17.9806 -0.430825  255 255 255
35.5446 38.6367 -64.5757  255 255 255
14.9113 33.8379 -56.0892  255 255 255
-47.8347 4.46963 -17.8041  255 255 255
-55.5219 8.81615 -22.275  255 255 255
16.5937 -16.9054 29.6717  255 255 255
-2.52328 -29.5167 45.9048  255 255 255
20.0403 7.50465 -27.1021  255 255 255
-24.9936 20.0553 -36.7141  255 255 255
24.4522 -42.9304 28.323  255 255 255
-66.3913 -34.3924 27.515  255 255 255
28.9008 -45.1541 30.3531  255 255 255
29.1026 -42.8307 27.6936  255 255 255
42.2787 -41.1898 24.7676  255 255 255
34.3489 26.1061 -14.7979  255 255 255
-30.8303 7.19591 -22.8164  255 255 255
-67.7183 -45.0172 40.1378  255 255 255
6.27069 6.37439 -24.6346  255 255 255
-41.6729 -11.4011 -0.839501  255 255 255
29.8116 19.879 -41.7589  255 255 255
-42.6821 -27.9926 18.0043  255 255 255
16.0675 3.98097 -22.7121  255 255 255
37.9402 0.0225693 9.50927  255 255 255
-21.9784 -52.2239 43.0581  255 255 255
-30.0796 7.33551 -22.5057  255 255 255
-91.3698 -22.6859 17.2223  255 255 255
-47.7087 -28.1229 18.1416  255 255 255
-27.0804 6.99111 -22.7713  255 255 255
29.0345 -25.8422 8.78497  255 255 255
-33.0636 19.4196 -35.7453  255 255 255
25.3224 -46.4904 32.0561  255 255 255
-3.5331 42.8252 -47.1472  255 255 255
-69.7583 -47.9421 43.9262  255 255 255
9.81429 -29.1966 44.209  255 255 255
-30.2152 10.9599 -26.1207  255 255 255
-48.8201 -2.95422 -9.5376  255 255 255
37.3838 6.96015 -18.1123  255 255 255
40.8111 34.005 -58.6262  255 255 255
10.4613 48.8711 -52.734  255 255 255
-31.8773 -44.0142 34.6634  255 255 255
31.1866 30.7563 -54.0271  255 255 255
6.43852 8.93487 -27.435  255 255 255
29.4989 -27.8615 10.7626  255 255 255
36.9565 -0.983902 -19.5038  255 255 255
36.6399 -41.773 25.2255  255 255 255
-36.96 2.73783 -17.4305  255 255 255
38.4315 34.1328 -59.6261  255 255 255
-34.6096 -54.3289 46.5121  255 255 255
-40.4883 -25.1836 14.2399  255 255 255
-97.8141 -16.4615 10.8615  255 255 255
-39.1689 6.54141 -20.8271  255 255 255
-8.25819 41.9638 -45.0446  255 255 255
-47.5881 -10.4287 -1.20245  255 255 255
-35.0474 6.479 -21.1173  255 255 255
-30.6195 15.3463 -31.7609  255 255 255
28.6619 -40.7815 25.6873  255 255 255
-22.9011 -52.3482 43.186  255 255 255
29.7007 -45.9471 30.9436  255 255 255
-33.4088 -52.5387 44.2671  255 255 255
-8.60035 44.7234 -43.1447  255 255 255
-54.9892 11.6686 -24.9669  255 255 255
-35.2437 -46.8949 38.3506  255 255 255
-40.7853 4.05845 -18.0386  255 255 255
13.2624 -50.6991 37.8762  255 255 255
-30.6013 6.81935 -21.9988  255 255 255
27.4524 36.9351 -60.8779  255 255 255
41.9023 -17.5793 8.67592  255 255 255
-45.1154 -47.7135 40.1464  255 255 255
8.21008 22.4912 -42.8717  255 255 255
-28.953 -50.0875 41.1492  255 255 255
-66.5372 -47.7994 43.5261  255 255 255
-30.5758 0.843817 -15.0627  255 255 255
-69.2363 -44.1015 39.188  255 255 255
-52.611 -35.1041 26.4719  255 255 255
-43.4262 -41.879 33.1793  255 255 255
40.6727 -40.9933 24.6371  255 255 255
26.1055 -43.8282 28.9623  255 255 255
13.1223 -38.4893 34.1478  255 255 255
38.6306 -38.3863 22.3171  255 255 255
27.5081 -44.0696 29.5967  255 255 255
30.6587 -42.6654 27.4006  255 255 255
25.6577 -44.3018 29.5017  255 255 255
41.4216 -42.2637 26.7576  255 255 255
25.8947 -45.9373 31.287  255 255 255
-68.5322 -48.279 44.31  255 255 255
-8.27718 29.3686 -48.7645  255 255 255
25.8489 -40.0664 24.766  255 255 255
-25.3656 -51.0894 41.9571  255 255 255
41.8322 47.7251 -74.3873  255 255 255
-57.4295 15.4725 -21.1298  255 255 255
37.7816 1.11614 -20.2126  255 255 255
25.6273 -45.9462 30.72  255 255 255
35.5603 39.657 -65.0606  255 255 255
-6.59868 -55.2384 44.5941  255 255 255
-5.68034 42.3743 -47.4929  255 255 255
34.2421 29.9311 -54.0556  255 255 255
-62.3024 -5.36777 -5.96895  255 255 255
-46.9791 -30.3294 20.6882  255 255 255
43.8977 -41.0333 24.9061  255 255 255
16.1348 -20.8517 33.9649  255 255 255
-51.2636 -9.01767 -2.33971  255 255 255
35.5539 4.70825 -19.7365  255 255 255
9.36449 -17.6038 38.0249  255 255 255
42.6339 -40.9656 26.4795  255 255 255
-25.6961 -54.4373 45.9627  255 255 255
-52.0385 20.1951 -24.9774  255 255 255
-42.3336 -53.8706 47.2122  255 255 255
-40.5483 -15.9099 4.24952  255 255 255
-32.4299 5.841 -20.0085  255 255 255
-28.7101 11.7828 -27.3991  255 255 255
28.6706 -42.3567 27.0054  255 255 255
-31.0781 7.71019 -22.864  255 255 255
32.1275 -30.2341 13.3844  255 255 255
31.9852 -31.2578 13.8553  255 255 255
-25.9041 -16.1773 33.4095  255 255 255
10.6248 48.3484 -53.9706  255 255 255
39.8771 -41.1359 25.0242  255 255 255
-21.3969 -14.9961 35.6433  255 255 255
-33.3967 3.43244 -17.8357  255 255 255
14.2188 14.3279 -34.1173  255 255 255
35.5276 -36.6275 20.0723  255 255 255
39.1545 -41.6807 25.751  255 255 255
-41.0738 10.0974 -25.0453  255 255 255
20.2788 55.3914 -55.7256  255 255 255
-76.5084 -45.8308 43.3891  255 255 255
16.6846 39.6925 -62.7572  255 255 255
-19.4728 -55.2297 46.2785  255 255 255
-25.5572 -16.4921 33.8803  255 255 255
30.7697 27.6476 -50.6108  255 255 255
25.9473 -44.992 30.4148  255 255 255
42.3514 -41.4516 25.0113  255 255 255
-47.0549 -30.2307 21.2049  255 255 255
18.3334 7.75833 -27.1567  255 255 255
19.3723 8.18144 -27.9529  255 255 255
-40.4883 -25.1836 14.2399  255 255 255
-56.9714 -27.6133 18.1868  255 255 255
-52.5173 -35.4517 26.9221  255 255 255
-33.1131 -50.4885 42.2529  255 255 255
45.2562 -40.6345 24.8605  255 255 255
43.7805 47.6592 -75.4885  255 255 255
-25.5874 7.23731 -22.8479  255 255 255
9.81147 -21.6626 39.7317  255 255 255
44.6993 -43.3238 27.8491  255 255 255
-28.1082 36.3509 -31.0741  255 255 255
30.7457 -44.5665 29.3621  255 255 255
-19.7024 -44.7022 37.7901  255 255 255
-75.2825 -13.6214 3.8072  255 255 255
21.4023 30.1913 -52.8288  255 255 255
-52.2049 18.7512 -25.677  255 255 255
-10.7327 7.87771 -24.5907  255 255 255
-71.4196 -1.11972 -10.1884  255 255 255
42.654 -38.9525 22.6077  255 255 255
-30.5458 -47.32 38.4581  255 255 255
13.5799 -22.8082 36.608  255 255 255
-68.1726 -48.5847 44.7909  255 255 255
-31.7214 22.6374 -39.3302  255 255 255
9.38619 9.4505 -28.7113  255 255 255
26.3196 -44.6502 29.739  255 255 255
-48.7078 21.1407 -32.1861  255 255 255
-41.5335 -33.1613 23.0228  255 255 255
-33.6003 -2.40423 -11.2076  255 255 255
-51.3565 22.4083 -28.5202  255 255 255
-49.5181 -38.4496 29.8875  255 255 255
-52.6137 21.2135 -26.9386  255 255 255
39.9315 -41.3516 25.5613  255 255 255
-63.2294 -6.46702 -4.81527  255 255 255
-57.712 -15.1515 4.45095  255 255 255
-51.033 19.7653 -27.6248  255 255 255
8.46679 5.57109 -23.5048  255 255 255
-17.3293 -24.9258 42.9094  255 255 255
-17.4876 17.9491 -35.4127  255 255 255
-9.13011 10.4311 -27.5022  255 255 255
-30.0515 20.4663 -37.0432  255 255 255
-32.7662 -50.5367 42.3199  255 255 255
-35.2437 -46.8949 38.3506  255 255 255
27.2734 -46.0273 31.5439  255 255 255
-7.93236 31.5375 -51.3661  255 255 255
-68.6837 -48.0553 44.2026  255 255 255
-40.403 -16.2487 14.888  255 255 255
17.2123 18.1364 -38.8899  255 255 255
-32.3863 22.3491 -39.0049  255 255 255
-68.1349 -1.88906 -9.88835  255 255 255
-65.7373 -53.1067 50.2287  255 255 255
38.4134 -17.0421 1.57002  255 255 255
8.58932 9.41268 -27.9173  255 255 255
40.9973 -40.7681 24.9558  255 255 255
2.32503 -8.89065 40.5644  255 255 255
-63.7406 -0.849588 -10.6268  255 255 255
-37.1664 5.0645 -19.4577  255 255 255
25.0573 -46.6602 32.137  255 255 255
-20.5625 -50.7185 40.9983  255 255 255
38.3258 -15.7798 2.20219  255 255 255
18.5021 6.68021 -26.0587  255 255 255
38.5829 -41.9898 25.7605  255 255 255
18.7245 9.22237 -28.4821  255 255 255
11.3825 20.8821 -40.6471  255 255 255
-34.1044 2.18158 -15.915  255 255 255
-24.118 -50.4248 41.1563  255 255 255
-30.042 22.3978 -39.5114  255 255 255
-49.6259 -38.1489 29.372  255 255 255
18.1805 10.086 -29.6924  255 255 255
11.9307 14.6377 -34.6243  255 255 255
-30.2489 -44.4625 35.3506  255 255 255
-69.9075 -45.8838 41.7248  255 255 255
-73.8362 -46.2526 43.0545  255 255 255
32.6692 52.3774 -67.2961  255 255 255
40.1252 -22.1284 4.35548  255 255 255
16.2147 -17.0731 29.9328  255 255 255
32.4572 -42.8588 27.3176  255 255 255
-32.2282 -46.5828 37.687  255 255 255
-29.7072 11.4416 -27.3167  255 255 255
25.7306 -44.4792 29.7935  255 255 255
29.7248 19.9794 -42.2  255 255 255
-33.4066 21.6447 -38.1795  255 255 255
-77.15 -36.1127 30.5006  255 255 255
37.7816 1.11614 -20.2126  255 255 255
43.9895 -26.9664 8.81667  255 255 255
31.0408 32.3988 -55.5647  255 255 255
-30.064 21.1001 -37.8033  255 255 255
-28.4383 -40.8277 34.0759  255 255 255
-46.6766 -10.9356 -1.08882  255 255 255
13.6681 21.2905 -42.2061  255 255 255
-30.9491 -48.7395 39.9542  255 255 255
9.67176 25.787 -46.3887  255 255 255
-34.7582 -2.32689 -11.408  255 255 255
-25.5912 7.57145 -22.7164  255 255 255
22.8483 60.456 -53.8375  255 255 255
9.42683 9.07128 -27.4801  255 255 255
20.0145 51.9294 -57.9655  255 255 255
-35.4939 -47.5977 39.0431  255 255 255
0.662406 -53.8036 42.6545  255 255 255
-17.6524 -27.2877 44.7595  255 255 255
-47.0273 -6.49176 -6.01247  255 255 255
-5.11412 35.964 -51.527  255 255 255
27.6328 -33.724 17.1949  255 255 255
35.4835 43.1011 -69.5493  255 255 255
-5.53259 31.1058 -51.5749  255 255 255
-52.0385 20.1951 -24.9774  255 255 255
31.6502 -44.7696 29.4275  255 255 255
37.2504 6.54342 -18.2581  255 255 255
-42 -32.5651 22.9997  255 255 255
-30.8599 11.882 -27.5558  255 255 255
41.0299 -42.8791 27.3196  255 255 255
-43.6115 -11.8649 -0.427851  255 255 255
-10.0399 13.7325 -31.5514  255 255 255
-0.379459 44.354 -47.8945  255 255 255
-68.0762 15.8572 -24.9902  255 255 255
35.7814 10.2863 -19.1838  255 255 255
37.374 7.74858 -17.6016  255 255 255
24.5489 50.3777 -64.4117  255 255 255
-93.2368 9.69547 -21.2328  255 255 255
15.9831 21.0162 -41.8898  255 255 255
32.9512 -42.34 26.833  255 255 255
-45.2078 5.01385 -18.8138  255 255 255
-63.4703 -3.74611 -7.51645  255 255 255
38.5829 -41.9898 25.7605  255 255 255
15.5593 2.98053 -21.2895  255 255 255
13.3943 14.2895 -34.1047  255 255 255
-56.5777 16.9703 -23.3671  255 255 255
-76.47 -13.7755 4.16348  255 255 255
35.2779 20.8128 -42.9322  255 255 255
35.8114 -36.8928 20.1442  255 255 255
-35.4904 8.5121 -23.6499  255 255 255
-50.8895 19.1256 -25.5856  255 255 255
16.168 28.5611 -49.7603  255 255 255
40.7485 32.6205 -57.7866  255 255 255
-47.4568 -12.461 0.925404  255 255 255
8.91323 16.4125 -35.8938  255 255 255
27.3851 -46.9417 32.6669  255 255 255
-26.046 -51.7224 42.9637  255 255 255
-26.9742 -51.7296 43.0308  255 255 255
-42.6017 -48.6276 41.2025  255 255 255
-64.794 26.8082 -13.4247  255 255 255
26.2367 -41.5528 26.2882  255 255 255
-44.3104 -47.3547 39.8536  255 255 255
-66.7446 -52.6364 49.693  255 255 255
-28.0431 11.3696 -27.3429  255 255 255
9.41965 -52.2013 39.8147  255 255 255
24.9313 -43.9387 29.1931  255 255 255
28.3587 -46.5743 31.9983  255 255 255
-71.4515 -1.72586 -9.3792  255 255 255
35.8309 6.13045 8.93434  255 255 255
9.6359 13.0878 -32.5936  255 255 255
-8.4158 42.4501 -44.5718  255 255 255
-43.0441 -13.141 1.86492  255 255 255
-1.69404 42.677 -49.1793  255 255 255
-67.0933 -51.5891 48.0429  255 255 255
24.4423 32.93 -55.8919  255 255 255
-21.2012 12.332 -28.7187  255 255 255
25.5259 -46.975 32.4609  255 255 255
30.7184 -27.2235 10.2038  255 255 255
18.5736 19.6861 -39.6359  255 255 255
9.67301 8.27522 -27.1481  255 255 255
37.2126 29.029 -52.5704  255 255 255
-30.5319 -47.6016 38.6763  255 255 255
-33.6125 -45.4101 36.7924  255 255 255
17.3956 -18.2471 30.8044  255 255 255
7.42282 16.3097 -35.8739  255 255 255
35.4579 8.29745 -21.5916  255 255 255
-20.2607 -2.17712 16.9159  255 255 255
39.8138 -41.5432 26.0502  255 255 255
41.4223 42.9928 -68.963  255 255 255
-22.2834 11.2676 -27.6305  255 255 255
-50.0664 -8.05668 -3.60908  255 255 255
-59.0872 11.9362 -25.5268  255 255 255
-11.9836 -7.35854 40.1534  255 255 255
9.38619 9.4505 -28.7113  255 255 255
26.118 -38.4895 23.1647  255 255 255
0.454629 44.9791 -48.158  255 255 255
21.8947 57.4108 -55.9153  255 255 255
34.5875 8.1615 -22.8853  255 255 255
35.6968 5.25713 -21.3856  255 255 255
-21.2578 12.8559 -28.858  255 255 255
28.6706 -42.3567 27.0054  255 255 255
-41.7494 -33.2272 23.569  255 255 255
-43.4262 -41.879 33.1793  255 255 255
-101.525 -13.6977 7.94595  255 255 255
41.8631 -42.3891 26.8746  255 255 255
37.9721 1.47377 -19.7524  255 255 255
21.4755 -46.4478 31.9088  255 255 255
-77.4797 -9.02036 -0.773802  255 255 255
22.8048 -48.9209 34.9453  255 255 255
13.9354 53.0313 -52.7197  255 255 255
-69.8781 -44.1006 39.0796  255 255 255
-31.6141 9.549 -24.8295  255 255 255
-0.451338 -45.4353 39.8292  255 255 255
-36.8304 -37.693 28.0741  255 255 255
31.7534 28.6937 -52.0967  255 255 255
36.0651 -19.0816 0.503631  255 255 255
23.5668 -45.6092 31.0247  255 255 255
-6.41117 -30.1552 46.9801  255 255 255
-69.3501 -47.54 43.5082  255 255 255
-93.1212 -11.2712 3.74276  255 255 255
-45.2078 5.01385 -18.8138  255 255 255
-59.3865 -52.4631 48.4744  255 255 255
-40.2405 -34.5764 24.7944  255 255 255
-41.4875 -25.6501 15.0163  255 255 255
10.82 -45.1358 34.7535  255 255 255
-32.6586 2.43584 -17.2856  255 255 255
26.5979 -38.3953 22.9732  255 255 255
-33.6836 -2.01702 -12.0284  255 255 255
2.08688 -53.3007 41.5921  255 255 255
-69.3131 16.0028 -24.5235  255 255 255
30.2927 5.37604 -25.3962  255 255 255
32.229 35.8969 -58.8956  255 255 255
6.02787 8.85517 -27.8655  255 255 255
-61.0408 -50.3928 45.7835  255 255 255
-5.46797 31.9364 -52.0155  255 255 255
7.3563 12.5654 -32.1449  255 255 255
-68.9836 -48.9832 45.2559  255 255 255
36.5842 8.97334 -15.6453  255 255 255
-9.87481 10.8877 -27.7269  255 255 255
38.0621 36.2 -61.1087  255 255 255
-32.6965 -53.5563 45.1862  255 255 255
40.775 -43.9148 28.3762  255 255 255
-69.4285 17.1469 -23.4071  255 255 255
14.1825 -50.0567 36.9891  255 255 255
16.2536 -21.7375 34.7649  255 255 255
31.1946 -25.2778 7.93444  255 255 255
-32.2927 -50.2225 41.8355  255 255 255
-26.8587 -53.6299 44.8425  255 255 255
-23.0204 -50.8351 41.1501  255 255 255
41.7996 -41.0606 24.6191  255 255 255
0.0401309 -53.9258 41.4805  255 255 255
37.7014 -42.2117 26.3717  255 255 255
30.9821 -47.4092 32.859  255 255 255
-24.7263 -52.5443 43.5967  255 255 255
-25.1332 -51.7841 42.8789  255 255 255
-7.44306 28.2156 -47.686  255 255 255
-7.44306 28.2156 -47.686  255 255 255
40.7777 -44.914 29.6552  255 255 255
28.4852 -39.6952 24.3574  255 255 255
-35.9584 -44.9197 36.096  255 255 255
-33.8691 -1.60184 -12.1656  255 255 255
1.58522 -53.0279 41.4982  255 255 255
29.5473 59.0833 -59.7854  255 255 255
25.8089 -44.0763 29.2127  255 255 255
-3.36317 -54.9033 43.862  255 255 255
-34.0646 -46.0485 37.2937  255 255 255
26.6787 -43.6118 28.7486  255 255 255
24.944 -45.8744 31.0829  255 255 255
-27.6862 5.89666 -21.5284  255 255 255
27.1276 -43.9026 28.7416  255 255 255
55.4803 68.4936 -69.7576  255 255 255
-65.0437 42.8012 3.50036  255 255 255
-65.0437 42.8012 3.50036  255 255 255
-26.8081 50.3651 -21.1125  255 255 255
36.8721 64.1082 -59.5323  255 255 255
46.0279 65.7911 -64.4526  255 255 255
-53.6925 44.8329 -3.99711  255 255 255
27.7062 62.5223 -55.7599  255 255 255
-27.8976 50.0353 -20.6524  255 255 255
-72.5543 40.8143 8.60623  255 255 255
49.0505 66.1676 -66.3293  255 255 255
-67.7643 41.7962 5.18262  255 255 255
-62.3283 43.0554 1.11547  255 255 255
-31.8765 48.9521 -18.2066  255 255 255
45.8835 65.5755 -65.1438  255 255 255
-27.5945 49.7454 -21.1236  255 255 255
-27.5945 49.7454 -21.1236  255 255 255
41.5302 37.0079 7.27888  255 255 255
41.5302 37.0079 7.27888  255 255 255
-39.3699 47.1684 -13.8171  255 255 255
-28.9212 49.3356 -20.7761  255 255 255
-66.261 41.8046 3.41612  255 255 255
-48.3832 45.1028 -7.79611  255 255 255
-48.3832 45.1028 -7.79611  255 255 255
-41.478 46.2889 -11.8994  255 255 255
34.8398 62.5417 -59.1918  255 255 255
46.5456 65.0107 -66.0409  255 255 255
39.9391 37.5221 4.92356  255 255 255
2.78694 55.7384 -41.1196  255 255 255
23.0911 59.6601 -52.3647  255 255 255
35.1307 62.4136 -59.8064  255 255 255
8.1456 56.4376 -43.801  255 255 255
-61.8766 42.2408 0.285936  255 255 255
34.7204 61.9542 -59.7949  255 255 255
39.9334 37.1429 4.70589  255 255 255
44.6599 64.0378 -65.6803  255 255 255
38.3349 38.1533 1.72256  255 255 255
38.3292 38.1534 1.72947  255 255 255
-52.4468 43.9207 -6.22885  255 255 255
40.9884 36.3199 6.29396  255 255 255
-53.467 43.5945 -5.42266  255 255 255
-28.6233 48.4804 -21.6333  255 255 255
-62.3581 41.6993 0.804451  255 255 255
-62.4166 41.8069 0.502978  255 255 255
-53.1549 43.6187 -5.76291  255 255 255
-8.54081 52.5302 -34.1348  255 255 255
36.378 39.4138 -1.93264  255 255 255
-63.5821 41.8305 0.265747  255 255 255
-54.2986 43.1367 -4.87094  255 255 255
-49.1614 44.1468 -8.37082  255 255 255
-49.1337 44.1593 -8.41069  255 255 255
42.5614 34.856 9.14736  255 255 255
45.8755 63.4719 -66.3963  255 255 255
-62.3932 41.528 0.22371  255 255 255
51.1753 64.769 -69.985  255 255 255
-31.5153 47.5843 -20.0423  255 255 255
-5.69976 52.8646 -36.3705  255 255 255
24.6668 59.2323 -54.7388  255 255 255
24.6668 59.2323 -54.7388  255 255 255
43.0444 62.8983 -64.9409  255 255 255
-64.5886 41.1366 1.55913  255 255 255
39.7232 36.7849 3.92295  255 255 255
-2.40824 52.9864 -37.7329  255 255 255
14.0677 56.7979 -48.2293  255 255 255
-63.5429 41.5876 -0.441092  255 255 255
39.6645 36.7161 3.37863  255 255 255
39.6645 36.7161 3.37863  255 255 255
3.36151 54.2203 -41.7747  255 255 255
-57.5785 42.136 -3.41447  255 255 255
-53.3195 43.2349 -6.90542  255 255 255
-53.2545 42.9789 -6.18781  255 255 255
-47.146 44.3262 -10.739  255 255 255
-39.2675 45.6331 -15.3041  255 255 255
27.5366 59.4085 -56.6749  255 255 255
42.1917 34.588 8.36875  255 255 255
-54.3286 42.83 -6.04108  255 255 255
-54.3245 42.7879 -5.96154  255 255 255
-8.00536 51.835 -35.277  255 255 255
50.4118 63.8964 -69.8244  255 255 255
-48.1061 43.9243 -9.98866  255 255 255
3.73159 54.2228 -42.7679  255 255 255
-34.8783 46.3256 -18.4581  255 255 255
-8.86444 51.4538 -34.6414  255 255 255
-64.9987 40.47 1.27209  255 255 255
46.4445 62.8326 -67.8435  255 255 255
41.1052 35.2128 6.34264  255 255 255
-55.4798 42.2222 -5.04254  255 255 255
-47.6165 43.6682 -10.7139  255 255 255
32.186 59.5535 -59.7271  255 255 255
-67.207 40.2708 1.32919  255 255 255
-47.1014 43.5453 -10.6178  255 255 255
38.2892 36.8781 0.436686  255 255 255
-70.01 39.014 4.63676  255 255 255
-47.8171 43.1163 -10.4968  255 255 255
-59.9472 40.3684 -1.1555  255 255 255
40.2873 35.2101 4.16694  255 255 255
-49.3474 42.6829 -9.43191  255 255 255
-48.5973 43.0014 -10.4061  255 255 255
41.7274 34.0074 7.37336  255 255 255
-60.4377 40.1511 -0.861894  255 255 255
-58.0938 41.0225 -3.85243  255 255 255
24.1657 57.3828 -55.9081  255 255 255
-40.3506 44.3557 -15.5452  255 255 255
-40.3133 44.2454 -15.2977  255 255 255
41.9482 33.9116 6.86737  255 255 255
40.5801 60.3874 -65.383  255 255 255
28.7203 57.7599 -58.9146  255 255 255
31.5451 58.4521 -60.8802  255 255 255
-52.3015 41.6943 -8.10686  255 255 255
32.9436 58.4321 -61.2516  255 255 255
-81.0904 40.1813 0.315296  255 255 255
-74.8101 37.6515 6.50177  255 255 255
-74.6498 37.4377 7.04453  255 255 255
-61.8284 40.2052 -2.67869  255 255 255
27.3962 57.2933 -58.1785  255 255 255
48.2281 61.4227 -70.1784  255 255 255
41.4565 33.7959 6.14391  255 255 255
-57.8522 40.7412 -4.82973  255 255 255
-39.2712 44.0093 -16.8642  255 255 255
-48.2001 41.9482 -10.1974  255 255 255
17.1503 54.714 -51.3225  255 255 255
-31.9673 44.9982 -21.0837  255 255 255
42.7404 32.6512 8.35503  255 255 255
-49.9636 41.8514 -10.4472  255 255 255
-12.6352 48.7248 -34.2239  255 255 255
42.1212 33.0262 6.90723  255 255 255
-68.3245 38.2313 2.34009  255 255 255
-55.1963 40.5956 -6.39796  255 255 255
-61.693 39.5277 -2.53361  255 255 255
39.0001 58.9432 -65.6797  255 255 255
10.8148 53.3122 -49.0388  255 255 255
38.0059 25.9906 26.1051  255 255 255
-48.382 41.8075 -11.5222  255 255 255
-39.3746 43.3688 -17.13  255 255 255
-74.313 37.0364 5.80764  255 255 255
-70.1719 37.6718 3.38981  255 255 255
-67.1919 37.9413 2.18457  255 255 255
-29.7694 45.2742 -23.978  255 255 255
-29.7694 45.2742 -23.978  255 255 255
39.3297 58.7178 -65.7799  255 255 255
4.57523 51.7369 -45.2847  255 255 255
9.66097 52.9322 -48.8708  255 255 255
-38.6228 43.3038 -17.8264  255 255 255
3.43952 51.5129 -44.9203  255 255 255
-103.09 51.4216 -31.1681  255 255 255
-17.0875 47.3911 -31.9947  255 255 255
39.6715 58.6255 -66.4176  255 255 255
-49.3768 41.407 -11.2695  255 255 255
-49.4049 41.4173 -11.2701  255 255 255
-40.2083 43.0375 -17.2453  255 255 255
48.714 60.3644 -72.1788  255 255 255
-50.5962 40.9379 -10.2374  255 255 255
-27.0736 45.2283 -25.8868  255 255 255
-27.0802 45.2109 -25.8516  255 255 255
-27.0736 45.2283 -25.8868  255 255 255
-68.568 37.5082 1.86987  255 255 255
42.5027 32.1069 7.02648  255 255 255
43.1338 31.4927 8.55476  255 255 255
40.4532 23.7256 30.4052  255 255 255
-60.3945 38.9747 -4.23773  255 255 255
-40.4491 42.1018 -16.2027  255 255 255
-4.68958 49.1005 -39.8821  255 255 255
40.2027 58.0199 -67.4824  255 255 255
-69.9141 37.2661 1.92659  255 255 255
42.6502 31.6931 7.17429  255 255 255
-39.6634 42.4913 -18.0477  255 255 255
42.9956 31.3409 8.03398  255 255 255
40.4026 23.4236 30.5487  255 255 255
-49.3612 40.6148 -11.5235  255 255 255
-49.3552 40.6556 -11.584  255 255 255
-12.3665 47.4584 -35.6066  255 255 255
37.975 24.739 26.3011  255 255 255
-12.6834 47.1928 -35.8553  255 255 255
-68.0104 37.0735 0.272273  255 255 255
-57.4257 38.9542 -7.44662  255 255 255
-48.7911 40.3362 -12.5264  255 255 255
-14.1195 46.61 -34.903  255 255 255
-14.6985 46.4713 -34.735  255 255 255
-6.20156 48.0681 -39.9348  255 255 255
-6.68871 47.6815 -38.9399  255 255 255
-7.07989 47.739 -39.2844  255 255 255
-33.7938 42.7065 -22.2803  255 255 255
-33.7938 42.7065 -22.2803  255 255 255
-70.4357 36.3217 1.69034  255 255 255
-14.4109 46.3441 -35.1333  255 255 255
-6.31589 47.8041 -40.1707  255 255 255
-49.6099 39.6121 -11.5419  255 255 255
-7.04648 47.4789 -39.5892  255 255 255
37.4663 24.6223 24.9047  255 255 255
-27.2236 43.8065 -27.0486  255 255 255
-51.263 39.519 -11.4843  255 255 255
-9.56195 46.9594 -38.1912  255 255 255
-6.65496 47.3981 -40.157  255 255 255
42.3843 30.2424 7.80946  255 255 255
40.1311 31.9068 2.16195  255 255 255
-7.88284 46.859 -40.0115  255 255 255
-2.2742 47.8708 -43.4389  255 255 255
52.1501 58.3081 -76.3001  255 255 255
-58.1282 37.8755 -7.36882  255 255 255
-8.31982 46.5713 -39.4293  255 255 255
40.7141 22.3039 29.9329  255 255 255
-36.7203 41.3868 -21.5703  255 255 255
-4.32063 47.2786 -42.2496  255 255 255
-20.3 44.013 -31.341  255 255 255
40.2595 31.6043 2.04638  255 255 255
-12.5436 45.6736 -37.2005  255 255 255
-101.965 48.1021 -31.5424  255 255 255
-26.8519 42.8842 -27.7349  255 255 255
-21.3874 43.9355 -31.4823  255 255 255
-23.2944 43.2591 -29.7331  255 255 255
-18.5753 44.3747 -33.5608  255 255 255
-7.86398 46.3524 -40.5058  255 255 255
38.2605 23.4679 25.4777  255 255 255
40.54 22.0971 29.4408  255 255 255
36.8578 33.2346 -4.48447  255 255 255
41.5002 21.4269 31.024  255 255 255
-23.5723 43.2148 -30.6036  255 255 255
-8.59144 45.7065 -39.6629  255 255 255
42.546 29.503 6.22804  255 255 255
42.546 29.503 6.22804  255 255 255
-102.538 47.5382 -32.262  255 255 255
-39.8498 40.1294 -20.1399  255 255 255
-51.4896 37.8159 -12.622  255 255 255
-51.4261 37.7061 -12.3435  255 255 255
-38.0247 39.8007 -20.8709  255 255 255
-38.0247 39.8007 -20.8709  255 255 255
43.4179 19.6647 34.6704  255 255 255
-54.1972 37.1412 -10.6864  255 255 255
-54.1318 37.0879 -10.5503  255 255 255
-28.5762 41.4682 -27.6896  255 255 255
-57.3364 36.6437 -9.0946  255 255 255
39.313 21.9245 27.3576  255 255 255
39.4765 22.1815 26.3738  255 255 255
-70.734 34.3305 0.0796372  255 255 255
-70.734 34.3305 0.0796372  255 255 255
-49.6628 37.8541 -14.4342  255 255 255
43.5326 19.3923 34.6921  255 255 255
40.6728 20.9963 29.7246  255 255 255
-25.2445 41.7985 -30.51  255 255 255
-21.0271 42.5156 -33.3024  255 255 255
42.1077 29.2334 4.07858  255 255 255
41.0089 20.7709 29.9292  255 255 255
36.0738 32.5621 -6.66135  255 255 255
-33.1586 40.2084 -25.4595  255 255 255
31.1597 51.8494 -65.8186  255 255 255
-59.677 35.6536 -7.81287  255 255 255
-59.677 35.6536 -7.81287  255 255 255
-18.9207 42.5883 -34.8311  255 255 255
38.1468 22.3718 24.4823  255 255 255
39.5014 21.6049 26.9125  255 255 255
39.5014 21.6049 26.9125  255 255 255
-23.6787 41.7027 -31.8429  255 255 255
-23.6858 41.7345 -31.9223  255 255 255
40.3281 20.8121 29.0471  255 255 255
-28.2186 40.9068 -28.9773  255 255 255
-22.9906 41.7991 -32.4009  255 255 255
-23.0072 41.8174 -32.4467  255 255 255
-18.517 42.6746 -35.4713  255 255 255
-60.6454 35.4333 -7.32995  255 255 255
37.4158 31.4334 -4.31953  255 255 255
37.5228 31.5237 -4.58113  255 255 255
-13.766 43.1651 -38.3571  255 255 255
-80.6572 34.975 -3.08112  255 255 255
-80.6572 34.975 -3.08112  255 255 255
-26.7627 40.6679 -29.7071  255 255 255
41.0293 20.144 30.1254  255 255 255
36.6293 52.1578 -70.1962  255 255 255
-20.0189 41.8931 -34.788  255 255 255
-25.0426 40.7126 -30.4712  255 255 255
-22.1076 41.4014 -33.1594  255 255 255
40.4117 20.4413 29.0858  255 255 255
-68.8642 33.7281 -2.12065  255 255 255
-23.2431 41.3309 -32.893  255 255 255
32.9542 51.251 -67.8842  255 255 255
45.0054 17.8082 36.8042  255 255 255
3.15481 45.7873 -50.0118  255 255 255
-27.7672 40.2479 -30.0212  255 255 255
30.1976 50.5016 -66.5252  255 255 255
-70.6065 33.0039 -1.3357  255 255 255
-52.3841 35.7559 -13.4952  255 255 255
-25.1284 40.3875 -32.0883  255 255 255
-58.0026 34.829 -9.92326  255 255 255
3.7168 44.7294 -48.4783  255 255 255
41.0449 19.9375 28.6751  255 255 255
44.5152 17.7555 35.3988  255 255 255
-68.1477 33.1567 -3.1407  255 255 255
-20.3657 40.9641 -35.4845  255 255 255
-20.3643 40.9501 -35.4373  255 255 255
-50.5366 35.8618 -15.2591  255 255 255
32.8184 50.2654 -69.0148  255 255 255
-43.5354 36.8033 -19.6653  255 255 255
39.3596 20.5226 25.8283  255 255 255
-59.5915 34.3616 -9.7424  255 255 255
-54.8789 34.8547 -12.5404  255 255 255
-54.6368 34.5259 -11.4358  255 255 255
-69.732 32.4999 -2.30416  255 255 255
29.4251 49.181 -67.0636  255 255 255
40.021 19.9564 27.1134  255 255 255
-33.4388 38.2311 -27.2042  255 255 255
40.6853 19.5976 28.152  255 255 255
-43.9487 36.2672 -19.5533  255 255 255
39.6374 28.4089 -0.682196  255 255 255
-60.641 33.7006 -8.9766  255 255 255
-60.641 33.7006 -8.9766  255 255 255
-43.5767 36.3586 -20.5225  255 255 255
-45.3734 36.0286 -19.4308  255 255 255
40.729 19.4449 27.8518  255 255 255
45.8403 16.3043 37.6814  255 255 255
10.9794 45.4347 -56.7067  255 255 255
32.5848 48.8589 -69.1115  255 255 255
-60.6524 33.5298 -9.84726  255 255 255
-16.9414 40.3851 -38.6686  255 255 255
37.8657 20.6572 22.7951  255 255 255
46.2701 15.8823 37.9913  255 255 255
34.1225 48.8728 -71.5664  255 255 255
40.7002 18.8426 27.8902  255 255 255
10.9104 44.8171 -56.8818  255 255 255
37.2552 20.7322 21.4366  255 255 255
-71.8569 31.0869 -2.22848  255 255 255
-50.0776 34.3689 -16.9855  255 255 255
-50.0776 34.3689 -16.9855  255 255 255
-46.4809 35.1005 -19.9503  255 255 255
39.835 19.1276 26.0165  255 255 255
-23.4286 37.667 -32.1553  255 255 255
38.5148 19.7432 23.7279  255 255 255
40.4501 18.6051 27.3821  255 255 255
-60.8943 32.5983 -10.0075  255 255 255
37.5426 28.4066 -5.68133  255 255 255
38.6223 19.5004 24.1929  255 255 255
-60.566 32.4002 -10.0322  255 255 255
38.7927 27.549 -3.75212  255 255 255
-12.1963 40.016 -43.0704  255 255 255
37.6174 28.0619 -5.6719  255 255 255
